000131  000131  000132  000132  000132  000133  000133  000133  000134  000134  000134  000135  000135  000135  000135  000136  000136  000137  000137  000137  000137  000138  000139  000139  000139  000140  000140  000140  000141  000141  000142  000142  000142  000142  000143  000143  000144  000144  000144  000145  000145  000145  000146  000146  000147  000147  000147  000148  000148  000149  000149  000149  000150  000150  000151  000151  000151  000152  000152  000153  000153  000153  000154  000154  000155  000155  000156  000156  000157  000157  000158  000158  000158  000159  000159  000160  000160  000161  000161  000161  000162  000163  000163  000164  000164  000164  000165  000166  000166  000167  000167  000167  000168  000168  000169  000170  000170  000171  000171  000172  000172  000173  000173  000174  000174  000175  000176  000176  000177  000177  000178  000178  000179  000179  000180  000180  000181  000182  000183  000183  000184  000184  000185  000186  000187  000187  000187  000188  000189  000190  000191  000192  000193  000193  000194  000195  000196  000197  000197  000197  000198  000199  000200  000201  000201  000202  000203  000204  000205  000205  000206  000207  000207  000208  000208  000209  000209  000209  000209  000209  000209  000209  000208  000208  000208  000208  000207  000207  000207  000207  000207  000206  000206  000206  000205  000204  000202  000202  000202  000203  000000  000000  000000  000000  000000  000000  000000  000000  000000  000000  000000  000000  000000  000000  000000  000000  000000  000000  000000  000000  000000  000000  000000  000000  000000  000000  000000  000000  000000  000000  000000  000000  000000  000000  000000  000000  000000  000000  000000  000000  000000  000000  000000  000000  000189  000190  000189  000188  000188  000188  000188  000187  000187  000187  000186  000186  000186  000186  000185  000185  000185  000185  000185  000186  000185  000000  000185  000187  000188  000188  000188  000189  000188  000188  000189  000190  000190  000191  000191  000191  000192  000192  000193  000194  000194  000195  000195  000196  000197  000198  000198  000198  000199  000201  000202  000202  000202  000202  000203  000203  000206  000207  000000  000000  000221  000221  000221  000000  000000  000000  000000  000237  000237  000238  000239  000239  000239  000241  000000  000251  000251  000000  000000  000000  000169  000169  000168  000169  000169  000168  000168  000168  000168  000168  000168  000167  000167  000167  000166  000166  000166  000166  000166  000165  000165  000165  000165  000165  000164  000164  000164  000164  000164  000163  000163  000163  000163  000163  000162  000162  000162  000162  000161  000161  000161  000161  000161  000161  000160  000160  000160  000160  000159  000159  000159  000159  000159  000158  000158  000158  000158  000158  000157  000157  000157  000157  000157  000157  000156  000156  000156  000156  000156
000131  000131  000132  000132  000132  000132  000133  000133  000133  000134  000134  000135  000135  000135  000135  000136  000136  000136  000137  000137  000137  000138  000138  000139  000139  000139  000140  000140  000140  000141  000141  000142  000142  000142  000143  000143  000144  000144  000144  000145  000145  000145  000146  000146  000147  000147  000147  000148  000148  000148  000149  000149  000150  000150  000151  000151  000152  000152  000152  000153  000153  000153  000154  000154  000155  000155  000156  000156  000157  000157  000158  000158  000158  000159  000159  000160  000160  000161  000161  000161  000162  000163  000163  000164  000164  000164  000165  000165  000166  000166  000167  000168  000168  000169  000169  000170  000170  000171  000171  000172  000172  000173  000173  000174  000174  000175  000175  000176  000176  000177  000178  000178  000179  000179  000180  000180  000181  000182  000183  000183  000184  000184  000185  000186  000186  000187  000187  000188  000188  000189  000190  000191  000192  000192  000194  000195  000195  000196  000197  000197  000198  000198  000199  000200  000201  000202  000203  000204  000204  000205  000205  000206  000207  000208  000208  000209  000209  000209  000209  000209  000209  000208  000208  000208  000208  000208  000207  000207  000207  000207  000206  000206  000206  000206  000205  000205  000203  000202  000202  000000  000000  000000  000000  000000  000000  000000  000000  000000  000000  000000  000000  000000  000000  000000  000000  000000  000000  000000  000000  000000  000000  000000  000000  000000  000000  000000  000000  000000  000000  000000  000000  000000  000000  000000  000000  000000  000000  000000  000000  000000  000000  000000  000000  000000  000000  000190  000188  000188  000188  000188  000188  000187  000187  000187  000186  000186  000186  000185  000185  000185  000184  000184  000185  000185  000186  000000  000185  000186  000188  000188  000189  000000  000187  000187  000188  000190  000190  000190  000190  000191  000192  000192  000193  000194  000194  000195  000195  000195  000196  000197  000197  000198  000199  000201  000201  000202  000202  000202  000203  000204  000205  000207  000000  000221  000221  000221  000221  000222  000000  000231  000000  000236  000237  000238  000239  000239  000239  000000  000000  000000  000000  000000  000249  000000  000000  000169  000168  000169  000168  000168  000168  000168  000168  000168  000167  000167  000167  000166  000166  000166  000166  000166  000165  000165  000165  000165  000165  000164  000164  000164  000164  000164  000163  000163  000163  000163  000162  000162  000162  000162  000162  000161  000161  000161  000161  000161  000161  000160  000160  000160  000160  000160  000160  000159  000159  000159  000159  000158  000158  000158  000158  000158  000157  000157  000157  000157  000157  000157  000156  000156  000156  000156  000156
000131  000131  000131  000132  000132  000132  000133  000133  000133  000134  000134  000135  000135  000135  000135  000136  000136  000136  000137  000137  000137  000138  000138  000139  000139  000139  000140  000140  000140  000140  000141  000141  000142  000142  000143  000144  000145  000145  000145  000000  000146  000146  000146  000146  000147  000147  000147  000148  000148  000148  000149  000149  000150  000150  000150  000151  000151  000152  000152  000153  000153  000153  000154  000154  000155  000155  000156  000156  000156  000157  000157  000158  000158  000159  000159  000160  000160  000161  000161  000161  000162  000162  000163  000163  000164  000164  000165  000165  000166  000166  000167  000167  000168  000168  000169  000170  000170  000171  000171  000172  000172  000173  000173  000174  000174  000175  000175  000176  000176  000177  000178  000178  000179  000179  000180  000180  000181  000182  000183  000183  000184  000184  000185  000185  000186  000187  000187  000188  000188  000189  000190  000191  000191  000192  000193  000194  000195  000196  000197  000197  000198  000198  000199  000200  000201  000202  000202  000203  000204  000205  000205  000206  000207  000208  000208  000209  000209  000209  000209  000209  000209  000208  000208  000208  000208  000207  000207  000207  000207  000206  000206  000206  000206  000206  000206  000205  000203  000201  000203  000204  000000  000000  000000  000000  000000  000000  000000  000000  000000  000000  000000  000000  000000  000000  000000  000000  000000  000000  000000  000000  000000  000000  000000  000000  000000  000000  000000  000000  000000  000000  000000  000000  000000  000000  000000  000000  000000  000000  000000  000000  000000  000000  000000  000000  000192  000000  000187  000187  000188  000187  000187  000187  000187  000186  000186  000186  000185  000185  000185  000184  000184  000184  000185  000000  000184  000185  000186  000186  000188  000189  000189  000188  000187  000187  000187  000189  000190  000190  000190  000191  000192  000192  000193  000193  000194  000194  000194  000195  000196  000197  000197  000198  000199  000200  000201  000201  000202  000202  000203  000205  000206  000206  000000  000000  000221  000221  000221  000222  000000  000000  000000  000000  000237  000237  000238  000238  000239  000000  000000  000245  000245  000246  000000  000000  000169  000169  000168  000169  000168  000168  000168  000168  000168  000168  000167  000167  000167  000166  000166  000166  000166  000166  000165  000165  000165  000165  000165  000164  000164  000164  000164  000164  000163  000163  000163  000163  000162  000162  000162  000162  000162  000161  000161  000161  000161  000161  000160  000160  000160  000160  000160  000160  000159  000159  000159  000159  000158  000158  000158  000158  000158  000158  000157  000157  000157  000157  000157  000156  000156  000156  000156  000156  000155
000131  000131  000131  000132  000132  000132  000132  000133  000133  000133  000134  000134  000135  000135  000135  000136  000136  000136  000137  000137  000137  000138  000138  000139  000139  000139  000139  000140  000140  000140  000141  000141  000142  000000  000000  000000  000000  000000  000000  000000  000000  000000  000000  000146  000147  000147  000147  000148  000148  000148  000149  000149  000150  000150  000150  000151  000151  000152  000152  000152  000153  000153  000154  000154  000155  000155  000155  000156  000156  000157  000157  000157  000158  000159  000159  000160  000160  000161  000161  000161  000162  000162  000163  000163  000164  000164  000165  000165  000165  000166  000167  000167  000168  000168  000169  000169  000170  000170  000171  000171  000172  000172  000173  000174  000174  000174  000175  000175  000176  000177  000177  000178  000178  000179  000180  000180  000181  000182  000183  000183  000183  000184  000185  000185  000186  000187  000187  000188  000188  000190  000190  000191  000192  000192  000193  000194  000195  000196  000197  000197  000198  000198  000199  000200  000201  000201  000202  000203  000204  000204  000205  000206  000207  000207  000208  000208  000209  000209  000209  000209  000208  000208  000208  000208  000208  000207  000207  000207  000206  000206  000206  000206  000206  000206  000206  000205  000202  000202  000202  000203  000202  000000  000000  000000  000000  000000  000000  000000  000000  000000  000000  000000  000000  000000  000000  000000  000000  000000  000000  000000  000000  000000  000000  000000  000000  000000  000000  000000  000000  000000  000000  000000  000000  000000  000000  000000  000000  000000  000000  000000  000000  000000  000000  000000  000188  000189  000188  000188  000188  000187  000187  000187  000187  000186  000186  000186  000186  000185  000185  000184  000184  000184  000184  000184  000184  000185  000186  000185  000186  000188  000189  000188  000187  000187  000187  000188  000189  000189  000190  000190  000191  000192  000192  000193  000194  000194  000194  000195  000196  000197  000197  000198  000199  000200  000201  000201  000202  000203  000204  000205  000206  000208  000208  000220  000221  000221  000220  000220  000000  000000  000000  000238  000237  000237  000237  000237  000239  000241  000243  000244  000244  000245  000247  000000  000000  000168  000168  000168  000168  000168  000168  000168  000168  000167  000167  000167  000167  000166  000166  000166  000166  000166  000165  000165  000165  000165  000164  000164  000164  000164  000164  000163  000163  000163  000163  000162  000162  000162  000162  000162  000161  000161  000161  000161  000161  000161  000160  000160  000160  000160  000160  000160  000159  000159  000159  000159  000158  000158  000158  000158  000158  000158  000157  000157  000157  000156  000156  000156  000156  000156  000156  000156  000155
000131  000131  000131  000132  000132  000132  000132  000133  000133  000133  000134  000134  000135  000135  000135  000136  000136  000136  000137  000137  000137  000137  000138  000139  000139  000139  000139  000140  000140  000141  000141  000142  000000  000000  000000  000000  000000  000000  000000  000000  000000  000000  000000  000148  000147  000147  000147  000148  000148  000148  000149  000149  000150  000150  000150  000151  000151  000151  000152  000152  000153  000153  000154  000154  000154  000155  000155  000156  000156  000157  000157  000157  000158  000159  000159  000159  000160  000160  000161  000161  000162  000162  000163  000163  000164  000164  000165  000165  000165  000166  000166  000167  000168  000168  000168  000169  000170  000170  000171  000171  000172  000172  000173  000173  000174  000174  000175  000175  000176  000177  000177  000178  000178  000179  000180  000180  000181  000181  000182  000183  000183  000184  000185  000185  000186  000186  000187  000187  000188  000189  000190  000191  000192  000192  000193  000194  000195  000196  000196  000197  000197  000198  000199  000200  000201  000202  000202  000203  000204  000204  000205  000206  000206  000207  000208  000208  000208  000209  000209  000208  000208  000208  000208  000208  000207  000207  000207  000207  000206  000206  000206  000206  000206  000206  000206  000205  000202  000201  000202  000202  000000  000000  000000  000000  000000  000000  000000  000000  000000  000000  000000  000000  000000  000000  000000  000000  000000  000000  000000  000000  000000  000000  000000  000000  000000  000000  000000  000000  000000  000000  000000  000000  000000  000000  000000  000000  000000  000000  000000  000000  000000  000000  000000  000000  000190  000188  000188  000188  000188  000187  000187  000186  000186  000186  000185  000185  000185  000185  000185  000184  000184  000184  000184  000183  000184  000185  000186  000184  000185  000188  000188  000187  000187  000187  000187  000188  000189  000189  000190  000190  000191  000191  000193  000193  000193  000193  000194  000195  000196  000197  000197  000198  000199  000200  000200  000201  000202  000203  000204  000205  000205  000206  000000  000000  000221  000220  000220  000221  000000  000229  000000  000237  000237  000236  000236  000236  000238  000242  000243  000243  000243  000244  000247  000000  000000  000168  000168  000168  000168  000168  000168  000168  000167  000167  000167  000167  000166  000166  000166  000166  000166  000165  000165  000165  000165  000165  000164  000164  000164  000163  000163  000163  000163  000163  000163  000162  000162  000162  000162  000162  000161  000161  000161  000161  000161  000161  000160  000160  000160  000160  000160  000159  000159  000159  000159  000159  000158  000158  000158  000158  000158  000157  000157  000157  000157  000156  000156  000156  000156  000156  000156  000155  000155
000130  000131  000131  000132  000132  000132  000132  000133  000133  000133  000134  000134  000135  000135  000135  000136  000136  000136  000137  000137  000137  000137  000138  000138  000139  000139  000139  000140  000140  000141  000142  000000  000000  000000  000115  000115  000115  000115  000115  000115  000115  000116  000000  000000  000148  000147  000147  000148  000148  000148  000149  000149  000149  000150  000150  000150  000151  000151  000152  000152  000153  000153  000154  000154  000154  000155  000155  000156  000156  000156  000157  000157  000158  000159  000159  000159  000160  000160  000161  000161  000162  000162  000163  000163  000163  000164  000165  000165  000165  000166  000166  000167  000168  000168  000168  000169  000170  000170  000171  000171  000171  000172  000173  000173  000174  000174  000175  000175  000176  000176  000177  000177  000178  000179  000179  000180  000181  000181  000182  000182  000183  000184  000184  000185  000186  000186  000187  000187  000188  000189  000190  000191  000192  000192  000193  000194  000195  000196  000196  000197  000197  000198  000199  000200  000201  000202  000202  000203  000204  000204  000205  000205  000206  000207  000207  000208  000208  000208  000208  000208  000207  000207  000207  000208  000207  000207  000207  000206  000206  000206  000206  000206  000206  000206  000205  000202  000201  000201  000203  000204  000000  000000  000000  000000  000000  000000  000000  000000  000000  000000  000000  000000  000000  000000  000000  000000  000000  000000  000000  000000  000000  000000  000000  000000  000000  000000  000000  000000  000000  000000  000000  000000  000000  000000  000000  000000  000000  000000  000000  000000  000000  000000  000000  000000  000189  000188  000188  000188  000187  000187  000187  000186  000186  000186  000185  000185  000185  000184  000184  000184  000184  000184  000183  000183  000183  000185  000186  000183  000000  000000  000189  000187  000187  000187  000188  000188  000189  000189  000189  000190  000191  000191  000193  000193  000193  000193  000194  000195  000196  000196  000197  000198  000199  000199  000200  000201  000202  000203  000204  000204  000205  000205  000207  000000  000220  000220  000220  000000  000000  000000  000000  000235  000236  000236  000235  000236  000239  000241  000243  000243  000243  000244  000247  000243  000000  000168  000168  000167  000168  000168  000168  000167  000167  000167  000167  000167  000166  000166  000166  000166  000165  000165  000165  000165  000165  000164  000164  000164  000164  000163  000163  000163  000163  000163  000162  000162  000162  000162  000162  000161  000161  000161  000161  000161  000161  000161  000160  000160  000160  000160  000159  000159  000159  000159  000159  000159  000158  000158  000158  000158  000157  000157  000157  000157  000157  000156  000156  000156  000156  000156  000156  000155  000155
000130  000131  000131  000132  000132  000133  000133  000133  000133  000133  000134  000134  000134  000135  000135  000136  000136  000136  000137  000137  000137  000137  000138  000138  000139  000139  000139  000140  000141  000000  000000  000000  000115  000115  000116  000116  000116  000000  000115  000115  000116  000116  000117  000000  000000  000000  000148  000148  000148  000148  000148  000149  000149  000150  000150  000150  000151  000151  000152  000152  000153  000153  000154  000154  000154  000155  000155  000156  000156  000156  000157  000157  000158  000159  000159  000159  000160  000160  000161  000161  000161  000162  000162  000163  000163  000164  000164  000165  000165  000166  000166  000167  000167  000168  000168  000169  000169  000170  000171  000171  000171  000172  000173  000173  000174  000175  000175  000176  000176  000176  000177  000177  000178  000179  000179  000180  000181  000181  000181  000182  000183  000184  000184  000185  000185  000186  000187  000187  000188  000189  000190  000191  000192  000193  000193  000194  000195  000195  000196  000196  000197  000198  000199  000200  000201  000202  000202  000203  000204  000204  000205  000206  000206  000207  000207  000208  000208  000208  000208  000208  000208  000207  000207  000208  000207  000207  000206  000206  000206  000206  000206  000206  000205  000205  000204  000202  000202  000202  000202  000204  000000  000000  000000  000000  000000  000000  000000  000000  000000  000000  000000  000000  000000  000000  000000  000000  000000  000000  000000  000000  000000  000000  000000  000000  000000  000000  000000  000000  000000  000000  000000  000000  000000  000000  000000  000000  000000  000000  000000  000000  000000  000000  000000  000000  000000  000187  000187  000187  000187  000187  000187  000186  000186  000186  000185  000185  000184  000184  000184  000184  000184  000183  000183  000183  000184  000000  000183  000184  000187  000000  000000  000187  000186  000187  000187  000188  000189  000189  000189  000190  000191  000191  000192  000193  000193  000193  000194  000195  000196  000196  000197  000198  000198  000199  000200  000201  000202  000202  000203  000204  000204  000205  000000  000000  000000  000000  000000  000000  000000  000000  000234  000233  000235  000235  000235  000236  000238  000240  000243  000243  000243  000244  000245  000245  000000  000168  000167  000167  000167  000167  000167  000167  000167  000167  000166  000166  000166  000166  000166  000166  000165  000165  000165  000165  000165  000164  000164  000164  000163  000163  000163  000163  000163  000163  000163  000162  000162  000162  000162  000161  000161  000161  000161  000160  000160  000160  000160  000160  000160  000159  000159  000159  000159  000159  000158  000158  000158  000158  000157  000157  000157  000157  000157  000157  000156  000156  000156  000156  000156  000156  000156  000155  000155
000130  000131  000131  000132  000132  000132  000133  000133  000133  000133  000134  000134  000134  000135  000135  000136  000136  000136  000136  000137  000137  000137  000138  000138  000139  000139  000139  000140  000143  000000  000000  000115  000116  000115  000115  000116  000116  000115  000115  000115  000116  000117  000116  000000  000000  000000  000149  000000  000148  000148  000148  000149  000149  000150  000150  000150  000151  000151  000151  000152  000152  000153  000153  000154  000154  000155  000155  000155  000156  000156  000157  000157  000158  000158  000159  000159  000160  000160  000160  000161  000161  000162  000162  000163  000163  000164  000164  000165  000165  000166  000166  000167  000167  000168  000168  000169  000169  000170  000171  000171  000171  000172  000173  000173  000174  000174  000175  000175  000176  000176  000177  000177  000178  000179  000179  000180  000180  000181  000182  000182  000183  000184  000184  000184  000185  000186  000187  000187  000188  000189  000190  000191  000191  000193  000193  000194  000194  000195  000196  000196  000197  000198  000199  000201  000201  000202  000202  000203  000204  000204  000205  000206  000206  000207  000207  000208  000208  000208  000208  000208  000208  000207  000207  000207  000207  000207  000206  000206  000206  000206  000206  000205  000205  000205  000204  000203  000202  000202  000203  000000  000000  000000  000000  000000  000000  000000  000000  000000  000000  000000  000000  000000  000000  000000  000000  000000  000000  000000  000000  000000  000000  000000  000000  000000  000000  000000  000000  000000  000000  000000  000000  000000  000000  000000  000000  000000  000000  000000  000000  000000  000000  000000  000000  000000  000000  000187  000187  000187  000187  000187  000187  000186  000186  000186  000185  000185  000185  000184  000184  000184  000184  000184  000184  000184  000184  000181  000183  000185  000000  000000  000000  000187  000186  000186  000187  000187  000189  000189  000189  000190  000191  000191  000192  000192  000193  000193  000194  000195  000196  000196  000197  000197  000198  000198  000199  000200  000201  000202  000202  000203  000203  000205  000207  000000  000000  000000  000000  000245  000244  000245  000000  000000  000000  000000  000236  000236  000238  000240  000241  000243  000243  000243  000245  000246  000000  000168  000168  000167  000167  000167  000167  000167  000167  000166  000166  000166  000166  000166  000166  000166  000165  000165  000165  000165  000164  000164  000164  000164  000163  000163  000163  000163  000163  000163  000162  000162  000162  000162  000162  000161  000161  000161  000161  000160  000160  000160  000160  000160  000160  000159  000159  000159  000159  000159  000158  000158  000158  000158  000157  000157  000157  000157  000157  000157  000156  000156  000156  000156  000156  000156  000155  000155  000155
000130  000131  000131  000131  000132  000132  000133  000132  000133  000133  000133  000134  000134  000135  000135  000135  000136  000136  000136  000137  000137  000137  000137  000138  000138  000139  000139  000000  000000  000000  000115  000116  000115  000115  000115  000115  000115  000115  000116  000115  000116  000116  000116  000115  000115  000115  000116  000000  000000  000148  000148  000149  000149  000149  000150  000150  000151  000151  000151  000152  000152  000153  000153  000154  000154  000155  000155  000155  000156  000156  000157  000157  000158  000158  000159  000159  000160  000160  000160  000161  000161  000162  000162  000163  000163  000164  000164  000165  000165  000166  000166  000167  000167  000168  000168  000169  000169  000170  000170  000171  000171  000172  000173  000173  000174  000174  000175  000175  000176  000176  000177  000177  000178  000178  000179  000180  000180  000181  000181  000182  000183  000184  000184  000185  000185  000186  000187  000187  000188  000189  000189  000190  000191  000192  000193  000193  000194  000195  000195  000196  000197  000198  000200  000201  000202  000202  000202  000203  000204  000204  000205  000206  000206  000207  000207  000207  000208  000208  000208  000208  000208  000207  000207  000207  000207  000207  000206  000206  000206  000206  000205  000205  000205  000205  000204  000202  000201  000000  000203  000204  000000  000000  000000  000000  000000  000000  000000  000000  000000  000000  000000  000000  000000  000000  000000  000000  000000  000000  000000  000000  000000  000000  000000  000000  000000  000000  000000  000000  000000  000000  000000  000000  000000  000000  000000  000000  000000  000000  000000  000000  000000  000000  000000  000000  000000  000187  000187  000187  000187  000186  000186  000186  000186  000185  000185  000185  000184  000184  000184  000184  000184  000184  000184  000183  000183  000000  000000  000000  000000  000000  000000  000187  000186  000186  000186  000187  000188  000189  000189  000190  000191  000191  000192  000192  000193  000193  000194  000195  000196  000196  000196  000197  000197  000198  000199  000200  000201  000202  000202  000203  000204  000205  000205  000000  000000  000241  000244  000244  000245  000246  000246  000000  000000  000243  000000  000000  000000  000241  000240  000242  000242  000243  000244  000000  000000  000000  000167  000167  000167  000167  000167  000167  000167  000166  000166  000166  000166  000165  000165  000165  000165  000165  000165  000164  000164  000164  000164  000164  000163  000163  000163  000163  000163  000163  000162  000162  000162  000162  000161  000161  000161  000161  000161  000160  000160  000160  000160  000160  000159  000159  000159  000159  000159  000159  000158  000158  000158  000158  000157  000157  000157  000157  000157  000156  000156  000156  000156  000156  000156  000155  000155  000155  000155
000130  000131  000131  000131  000131  000132  000132  000132  000132  000133  000133  000134  000134  000135  000135  000135  000136  000136  000136  000137  000137  000137  000137  000138  000138  000139  000000  000000  000000  000114  000115  000115  000115  000115  000115  000115  000115  000115  000115  000115  000114  000114  000114  000115  000115  000116  000116  000116  000117  000000  000000  000149  000149  000149  000150  000150  000151  000151  000151  000152  000152  000153  000153  000154  000154  000155  000155  000155  000155  000156  000157  000157  000158  000158  000158  000159  000159  000160  000160  000161  000161  000162  000162  000163  000163  000164  000164  000164  000165  000165  000166  000167  000167  000167  000168  000169  000169  000170  000170  000171  000171  000172  000173  000173  000174  000174  000175  000175  000176  000176  000177  000177  000178  000178  000179  000180  000180  000181  000181  000182  000183  000183  000184  000185  000185  000186  000187  000187  000188  000189  000189  000190  000191  000192  000192  000193  000193  000195  000195  000196  000196  000198  000199  000201  000202  000202  000203  000203  000204  000205  000205  000206  000206  000206  000207  000207  000207  000207  000208  000208  000208  000207  000207  000207  000207  000206  000206  000206  000206  000205  000205  000205  000205  000204  000204  000204  000202  000202  000203  000000  000000  000000  000000  000000  000000  000000  000000  000000  000000  000000  000000  000000  000000  000000  000000  000000  000000  000000  000000  000000  000000  000000  000000  000000  000000  000000  000000  000000  000000  000000  000000  000000  000000  000000  000000  000000  000000  000000  000000  000000  000000  000000  000000  000000  000188  000187  000187  000187  000186  000186  000186  000186  000185  000185  000185  000184  000184  000184  000183  000184  000184  000184  000183  000183  000182  000000  000000  000186  000186  000000  000000  000186  000186  000186  000186  000187  000188  000188  000189  000190  000191  000192  000192  000193  000193  000194  000194  000194  000195  000196  000196  000197  000197  000198  000199  000200  000201  000202  000202  000203  000205  000205  000204  000000  000241  000243  000244  000245  000246  000246  000246  000245  000244  000244  000000  000000  000000  000242  000242  000241  000243  000243  000245  000000  000000  000168  000167  000167  000167  000167  000167  000167  000167  000166  000166  000166  000166  000165  000165  000165  000165  000165  000164  000164  000164  000164  000164  000164  000163  000163  000163  000163  000163  000162  000162  000162  000162  000161  000161  000161  000161  000161  000161  000160  000160  000160  000160  000159  000159  000159  000159  000159  000159  000158  000158  000158  000158  000158  000157  000157  000157  000157  000156  000156  000156  000156  000156  000156  000155  000155  000155  000155  000155
000130  000131  000131  000131  000131  000132  000132  000132  000132  000133  000133  000134  000134  000135  000135  000135  000136  000136  000136  000136  000137  000137  000137  000138  000138  000000  000000  000000  000115  000115  000115  000115  000115  000116  000115  000115  000115  000115  000115  000114  000114  000114  000115  000115  000115  000115  000116  000116  000116  000116  000116  000116  000000  000150  000150  000150  000151  000151  000151  000152  000152  000153  000153  000154  000154  000155  000155  000155  000155  000156  000157  000157  000158  000158  000158  000159  000159  000160  000160  000161  000161  000161  000162  000162  000163  000163  000164  000164  000165  000166  000166  000167  000167  000167  000168  000169  000169  000170  000170  000171  000171  000172  000172  000173  000174  000174  000175  000175  000176  000176  000177  000177  000177  000178  000178  000180  000180  000181  000181  000182  000183  000183  000184  000185  000185  000186  000187  000187  000188  000189  000189  000190  000190  000191  000192  000193  000194  000195  000195  000196  000196  000197  000199  000201  000202  000202  000202  000203  000204  000205  000205  000205  000206  000206  000206  000207  000207  000207  000207  000207  000207  000207  000207  000207  000207  000206  000206  000205  000205  000205  000205  000205  000205  000204  000204  000203  000203  000201  000202  000000  000000  000000  000000  000000  000000  000000  000000  000000  000000  000000  000000  000000  000000  000000  000000  000000  000000  000000  000000  000000  000000  000000  000000  000000  000000  000000  000000  000000  000000  000000  000000  000000  000000  000000  000000  000000  000000  000000  000000  000000  000000  000000  000000  000000  000186  000187  000187  000187  000186  000186  000185  000185  000185  000184  000184  000184  000184  000184  000183  000183  000184  000184  000183  000182  000183  000000  000000  000184  000000  000000  000000  000186  000186  000186  000186  000187  000188  000188  000189  000189  000191  000191  000192  000192  000193  000193  000194  000194  000194  000195  000195  000196  000197  000198  000199  000200  000200  000200  000201  000000  000000  000000  000000  000000  000242  000243  000245  000246  000246  000246  000246  000245  000245  000245  000245  000245  000244  000244  000244  000000  000000  000000  000246  000246  000000  000000  000168  000168  000167  000167  000167  000166  000166  000166  000166  000166  000165  000165  000165  000165  000165  000165  000165  000164  000164  000164  000164  000163  000163  000163  000163  000163  000162  000162  000162  000162  000162  000161  000161  000161  000161  000160  000160  000160  000160  000160  000160  000159  000159  000159  000159  000159  000158  000158  000158  000158  000158  000158  000157  000157  000157  000157  000157  000156  000156  000156  000156  000156  000155  000155  000155  000155  000155
000130  000131  000131  000131  000131  000132  000132  000132  000133  000133  000134  000134  000134  000134  000135  000135  000135  000136  000136  000136  000136  000137  000137  000137  000138  000000  000000  000115  000115  000115  000115  000115  000115  000115  000115  000115  000114  000115  000114  000114  000114  000115  000115  000115  000115  000115  000115  000115  000116  000116  000116  000116  000116  000000  000150  000150  000151  000151  000151  000152  000152  000153  000153  000154  000154  000155  000155  000155  000156  000156  000157  000157  000158  000158  000158  000159  000159  000160  000160  000161  000161  000161  000162  000162  000163  000163  000164  000164  000165  000166  000166  000167  000167  000167  000168  000168  000169  000170  000170  000170  000171  000171  000172  000173  000173  000174  000174  000175  000175  000176  000177  000177  000177  000178  000178  000179  000180  000181  000181  000182  000182  000183  000184  000184  000185  000186  000186  000187  000188  000189  000189  000190  000190  000191  000192  000193  000194  000195  000196  000196  000196  000197  000199  000201  000202  000202  000202  000203  000204  000205  000205  000205  000205  000206  000206  000207  000207  000207  000207  000207  000207  000207  000206  000207  000206  000206  000206  000205  000205  000205  000205  000205  000204  000204  000204  000203  000202  000202  000201  000201  000000  000000  000000  000000  000000  000000  000000  000000  000000  000000  000000  000000  000000  000000  000000  000000  000000  000000  000000  000074  000000  000000  000000  000000  000000  000000  000000  000000  000000  000000  000000  000000  000000  000000  000000  000000  000000  000000  000000  000000  000000  000000  000000  000186  000186  000187  000186  000186  000186  000185  000185  000185  000184  000184  000184  000184  000184  000183  000183  000183  000184  000184  000183  000182  000181  000182  000000  000183  000000  000000  000191  000186  000186  000186  000186  000187  000188  000188  000189  000189  000190  000191  000192  000192  000193  000193  000193  000193  000193  000195  000196  000196  000197  000198  000199  000199  000199  000200  000201  000201  000000  000000  000000  000000  000242  000243  000245  000246  000247  000247  000246  000245  000245  000246  000246  000246  000246  000246  000246  000246  000248  000249  000247  000246  000000  000000  000168  000168  000167  000167  000167  000166  000166  000166  000166  000166  000165  000165  000165  000165  000165  000165  000164  000164  000164  000164  000163  000163  000163  000163  000163  000163  000162  000162  000162  000162  000161  000161  000161  000161  000161  000160  000160  000160  000160  000160  000159  000159  000159  000159  000158  000158  000158  000158  000158  000158  000158  000157  000157  000157  000157  000157  000156  000156  000156  000156  000156  000155  000155  000155  000155  000155  000154
000130  000130  000131  000131  000131  000131  000132  000132  000133  000133  000134  000134  000134  000134  000135  000135  000135  000135  000136  000136  000136  000137  000137  000137  000000  000000  000000  000114  000114  000114  000115  000115  000115  000115  000115  000115  000114  000115  000115  000115  000114  000115  000115  000115  000115  000115  000115  000115  000115  000115  000115  000115  000115  000000  000000  000151  000151  000151  000151  000152  000152  000153  000153  000154  000154  000155  000155  000155  000155  000156  000157  000157  000157  000158  000158  000159  000159  000159  000160  000160  000161  000161  000162  000162  000163  000163  000164  000164  000165  000165  000166  000166  000167  000167  000168  000168  000169  000169  000170  000170  000171  000171  000172  000173  000173  000174  000174  000175  000175  000176  000176  000177  000177  000178  000178  000179  000180  000181  000181  000181  000182  000183  000184  000184  000185  000185  000186  000187  000187  000188  000189  000190  000191  000191  000191  000193  000194  000196  000195  000196  000196  000197  000199  000200  000201  000202  000202  000203  000204  000204  000204  000205  000205  000206  000206  000207  000207  000207  000207  000207  000207  000206  000206  000206  000206  000206  000206  000205  000205  000205  000205  000205  000204  000204  000204  000203  000203  000202  000202  000202  000000  000000  000000  000000  000000  000000  000000  000000  000000  000000  000000  000000  000000  000000  000000  000000  000000  000000  000000  000000  000000  000000  000000  000000  000000  000000  000000  000000  000000  000000  000000  000000  000000  000000  000000  000000  000000  000000  000000  000000  000000  000000  000000  000000  000187  000187  000186  000186  000186  000185  000185  000185  000185  000184  000184  000184  000184  000183  000183  000183  000183  000183  000183  000181  000181  000183  000185  000184  000000  000000  000000  000186  000186  000186  000187  000187  000188  000188  000188  000189  000190  000191  000191  000192  000192  000192  000193  000193  000194  000195  000195  000196  000196  000198  000199  000199  000199  000200  000201  000202  000000  000000  000000  000000  000000  000243  000245  000246  000247  000247  000246  000246  000245  000000  000247  000247  000246  000246  000247  000248  000248  000248  000248  000000  000000  000000  000168  000167  000167  000167  000167  000166  000166  000166  000166  000165  000165  000165  000165  000165  000164  000164  000164  000164  000164  000164  000163  000163  000163  000163  000163  000162  000162  000162  000162  000161  000161  000161  000161  000161  000160  000160  000160  000160  000160  000159  000159  000159  000159  000159  000159  000158  000158  000158  000158  000158  000158  000157  000157  000157  000157  000157  000156  000156  000156  000156  000156  000155  000155  000155  000155  000155  000154
000130  000130  000131  000131  000131  000131  000132  000132  000133  000133  000133  000133  000134  000134  000135  000135  000135  000135  000136  000136  000136  000137  000137  000137  000000  000000  000116  000114  000114  000114  000114  000115  000115  000115  000115  000115  000115  000114  000115  000114  000114  000114  000114  000114  000113  000113  000113  000113  000112  000112  000113  000113  000113  000113  000000  000000  000000  000151  000151  000151  000152  000152  000153  000153  000154  000154  000155  000155  000155  000156  000156  000157  000157  000158  000158  000159  000159  000159  000160  000160  000161  000161  000162  000162  000163  000163  000164  000164  000165  000165  000166  000166  000167  000167  000168  000168  000169  000169  000170  000170  000171  000171  000172  000173  000173  000174  000174  000174  000175  000176  000176  000177  000177  000178  000178  000179  000180  000181  000181  000182  000182  000183  000184  000184  000185  000185  000186  000187  000187  000188  000189  000190  000191  000191  000191  000192  000194  000195  000195  000195  000196  000197  000199  000201  000201  000202  000202  000203  000203  000204  000204  000204  000205  000206  000206  000206  000207  000207  000207  000207  000206  000206  000206  000206  000206  000206  000206  000205  000205  000205  000204  000204  000204  000204  000203  000204  000202  000201  000201  000000  000000  000000  000000  000000  000000  000000  000000  000000  000000  000000  000000  000000  000000  000000  000120  000119  000000  000000  000000  000000  000115  000115  000000  000000  000000  000119  000000  000000  000000  000000  000000  000000  000000  000000  000000  000000  000000  000000  000000  000000  000000  000000  000000  000000  000188  000188  000187  000186  000186  000185  000185  000185  000184  000184  000184  000184  000184  000183  000183  000182  000182  000183  000183  000182  000182  000184  000184  000185  000186  000000  000190  000186  000185  000186  000186  000187  000188  000188  000188  000189  000190  000191  000191  000192  000192  000193  000193  000194  000194  000195  000195  000195  000196  000197  000198  000198  000199  000200  000201  000202  000204  000000  000205  000000  000000  000000  000000  000000  000000  000247  000000  000000  000000  000000  000000  000000  000245  000244  000244  000000  000246  000247  000000  000000  000000  000000  000168  000167  000167  000167  000166  000166  000166  000166  000165  000165  000165  000165  000165  000164  000164  000164  000164  000164  000164  000163  000163  000163  000163  000163  000162  000162  000162  000162  000161  000161  000161  000161  000161  000161  000161  000160  000160  000160  000160  000159  000159  000159  000159  000159  000159  000158  000158  000158  000158  000157  000157  000157  000157  000157  000157  000156  000156  000156  000156  000155  000156  000155  000155  000155  000155  000154  000154
000130  000130  000131  000131  000131  000131  000131  000132  000133  000133  000133  000133  000134  000134  000134  000135  000135  000135  000135  000136  000137  000137  000138  000138  000000  000000  000115  000116  000115  000114  000114  000115  000115  000114  000115  000114  000114  000114  000114  000114  000113  000112  000112  000112  000111  000111  000111  000111  000111  000111  000112  000112  000112  000112  000113  000113  000000  000000  000000  000151  000152  000152  000153  000153  000153  000154  000154  000155  000155  000156  000156  000156  000157  000158  000158  000159  000159  000159  000160  000160  000161  000161  000161  000162  000163  000163  000164  000164  000164  000165  000165  000166  000167  000167  000168  000168  000169  000169  000170  000170  000171  000171  000172  000173  000173  000174  000174  000174  000175  000175  000176  000176  000177  000178  000178  000179  000180  000181  000181  000182  000182  000183  000183  000184  000185  000185  000186  000187  000188  000188  000189  000189  000190  000191  000191  000192  000193  000195  000195  000195  000196  000197  000198  000200  000201  000201  000202  000203  000203  000204  000204  000204  000205  000206  000206  000206  000206  000207  000207  000207  000206  000206  000206  000206  000206  000206  000206  000205  000205  000204  000204  000204  000204  000203  000203  000202  000201  000200  000202  000201  000000  000000  000000  000000  000000  000000  000000  000000  000125  000000  000000  000118  000000  000000  000000  000120  000000  000000  000000  000000  000000  000115  000000  000000  000000  000000  000000  000000  000000  000000  000000  000000  000000  000000  000000  000000  000000  000000  000000  000000  000000  000000  000000  000000  000000  000000  000187  000186  000186  000185  000185  000184  000184  000184  000184  000184  000183  000183  000183  000182  000182  000183  000183  000183  000183  000182  000185  000184  000000  000189  000191  000186  000185  000185  000186  000187  000187  000187  000188  000189  000190  000190  000191  000192  000192  000192  000193  000194  000194  000194  000195  000196  000197  000197  000198  000199  000199  000200  000201  000202  000000  000204  000205  000000  000000  000218  000218  000218  000219  000000  000000  000000  000233  000235  000000  000000  000244  000244  000243  000244  000243  000000  000000  000000  000000  000168  000167  000167  000166  000166  000166  000166  000166  000165  000165  000165  000165  000165  000165  000164  000164  000164  000164  000164  000163  000163  000163  000163  000163  000162  000162  000162  000162  000162  000161  000161  000161  000161  000161  000161  000160  000160  000160  000160  000159  000159  000159  000159  000159  000159  000158  000158  000158  000158  000158  000157  000157  000157  000157  000157  000156  000156  000156  000156  000156  000155  000155  000155  000155  000155  000154  000154  000154
000130  000130  000131  000131  000131  000131  000132  000132  000132  000133  000133  000134  000134  000134  000134  000134  000135  000135  000135  000136  000136  000137  000138  000000  000000  000000  000114  000115  000115  000115  000115  000115  000115  000114  000114  000114  000114  000113  000112  000111  000111  000110  000110  000110  000110  000110  000110  000111  000111  000111  000111  000111  000112  000112  000112  000112  000113  000113  000114  000000  000000  000152  000152  000153  000153  000154  000154  000155  000155  000156  000156  000156  000157  000157  000158  000158  000159  000159  000160  000160  000161  000161  000161  000162  000163  000163  000164  000164  000164  000165  000165  000166  000167  000167  000168  000168  000169  000169  000170  000170  000171  000171  000172  000172  000173  000173  000174  000174  000175  000175  000176  000176  000177  000178  000178  000179  000180  000180  000181  000181  000182  000182  000183  000184  000184  000185  000186  000187  000187  000188  000189  000189  000190  000190  000191  000192  000193  000195  000195  000195  000196  000197  000199  000200  000201  000201  000202  000203  000203  000203  000204  000204  000205  000205  000206  000206  000206  000206  000207  000206  000206  000206  000206  000206  000206  000206  000206  000206  000205  000205  000204  000204  000203  000203  000202  000201  000200  000201  000202  000202  000000  000000  000000  000000  000124  000000  000000  000000  000000  000000  000000  000000  000000  000000  000000  000000  000000  000000  000000  000000  000000  000000  000000  000000  000000  000000  000000  000000  000000  000000  000000  000000  000000  000000  000000  000000  000000  000000  000000  000000  000000  000000  000000  000000  000000  000000  000186  000185  000185  000185  000185  000184  000184  000184  000184  000184  000183  000183  000183  000182  000182  000183  000183  000182  000182  000000  000183  000184  000000  000000  000190  000187  000185  000185  000185  000186  000186  000187  000188  000189  000190  000190  000191  000191  000191  000192  000193  000194  000194  000194  000195  000196  000197  000198  000198  000199  000200  000200  000201  000201  000203  000203  000205  000000  000000  000219  000219  000219  000219  000000  000230  000232  000232  000232  000000  000000  000000  000244  000244  000244  000243  000000  000244  000000  000000  000000  000167  000167  000166  000166  000166  000166  000165  000165  000165  000165  000165  000165  000165  000164  000164  000164  000164  000164  000163  000163  000163  000163  000162  000162  000162  000162  000162  000162  000161  000161  000161  000161  000161  000160  000160  000160  000160  000160  000159  000159  000159  000159  000158  000158  000158  000158  000158  000158  000157  000157  000157  000157  000157  000156  000156  000156  000156  000156  000156  000155  000155  000155  000155  000155  000155  000154  000154
000130  000130  000131  000131  000131  000132  000132  000132  000132  000132  000133  000134  000134  000134  000134  000135  000135  000135  000135  000136  000137  000137  000137  000138  000000  000000  000115  000115  000115  000114  000114  000114  000114  000114  000114  000113  000112  000111  000110  000110  000110  000110  000110  000110  000110  000110  000110  000110  000110  000110  000111  000111  000111  000111  000111  000112  000112  000113  000113  000114  000114  000000  000000  000152  000153  000154  000154  000155  000155  000156  000156  000156  000157  000157  000158  000158  000159  000159  000160  000160  000160  000161  000161  000162  000162  000163  000164  000164  000164  000165  000165  000166  000166  000167  000167  000168  000169  000169  000170  000170  000171  000171  000172  000172  000173  000173  000174  000174  000175  000175  000176  000177  000177  000178  000178  000179  000179  000180  000180  000181  000182  000182  000183  000183  000184  000185  000186  000186  000187  000188  000189  000189  000189  000191  000192  000192  000194  000195  000195  000196  000196  000197  000199  000200  000200  000201  000201  000202  000203  000203  000203  000204  000204  000205  000206  000206  000206  000206  000206  000206  000206  000206  000206  000206  000206  000206  000206  000206  000205  000205  000204  000203  000203  000203  000201  000201  000201  000201  000202  000000  000000  000000  000000  000000  000000  000000  000000  000000  000000  000000  000000  000000  000000  000000  000000  000000  000000  000000  000000  000000  000000  000000  000000  000000  000000  000000  000000  000000  000000  000000  000000  000000  000000  000000  000000  000000  000000  000000  000000  000000  000000  000000  000000  000000  000000  000185  000185  000185  000185  000185  000185  000184  000184  000184  000183  000183  000183  000183  000182  000182  000182  000183  000182  000182  000181  000182  000000  000183  000184  000190  000190  000187  000185  000185  000185  000185  000186  000187  000187  000189  000190  000190  000191  000191  000191  000192  000193  000194  000194  000194  000195  000196  000197  000198  000198  000199  000199  000199  000200  000201  000202  000203  000204  000000  000000  000218  000219  000218  000218  000000  000000  000000  000231  000000  000000  000000  000000  000243  000244  000242  000242  000242  000242  000000  000236  000000  000167  000166  000166  000166  000166  000166  000166  000165  000165  000165  000165  000164  000164  000164  000164  000164  000164  000163  000163  000163  000163  000162  000162  000162  000162  000162  000162  000161  000161  000161  000161  000161  000161  000160  000160  000160  000160  000159  000159  000159  000159  000159  000158  000158  000158  000158  000158  000158  000157  000157  000157  000157  000157  000156  000156  000156  000156  000156  000155  000155  000155  000155  000155  000155  000154  000154  000154
000130  000130  000131  000131  000131  000132  000132  000132  000132  000133  000133  000133  000134  000134  000134  000135  000135  000135  000136  000136  000137  000137  000137  000138  000000  000116  000116  000115  000114  000114  000114  000114  000114  000114  000114  000112  000110  000110  000109  000109  000109  000109  000109  000109  000109  000110  000110  000110  000110  000110  000110  000110  000111  000111  000111  000111  000112  000112  000112  000113  000113  000114  000115  000000  000000  000154  000154  000155  000155  000156  000156  000156  000157  000157  000158  000158  000159  000159  000159  000160  000160  000161  000161  000162  000162  000163  000163  000164  000164  000165  000165  000166  000166  000167  000167  000168  000169  000169  000170  000170  000170  000171  000171  000172  000173  000173  000174  000174  000175  000175  000176  000176  000177  000177  000178  000179  000179  000179  000180  000181  000182  000182  000182  000183  000184  000185  000186  000186  000187  000187  000188  000189  000190  000190  000191  000192  000194  000195  000195  000195  000196  000197  000198  000200  000200  000201  000201  000201  000202  000203  000203  000203  000204  000205  000206  000206  000206  000206  000206  000206  000206  000206  000206  000206  000206  000205  000206  000206  000205  000204  000204  000203  000203  000202  000201  000202  000202  000201  000201  000000  000000  000198  000000  000000  000000  000000  000000  000000  000000  000000  000000  000000  000000  000000  000000  000000  000000  000000  000000  000000  000000  000000  000000  000000  000000  000000  000000  000000  000000  000000  000000  000000  000000  000000  000000  000000  000000  000000  000000  000000  000000  000000  000000  000000  000000  000185  000185  000185  000185  000185  000184  000184  000184  000183  000183  000183  000183  000183  000182  000182  000182  000182  000182  000182  000182  000181  000182  000183  000184  000190  000190  000188  000185  000185  000185  000185  000186  000187  000188  000188  000190  000190  000190  000191  000191  000192  000192  000193  000194  000194  000195  000195  000196  000197  000198  000199  000199  000199  000200  000200  000201  000202  000204  000205  000000  000218  000218  000218  000218  000000  000000  000227  000229  000000  000000  000000  000000  000242  000242  000241  000241  000241  000241  000000  000240  000000  000167  000166  000166  000166  000166  000166  000165  000165  000165  000164  000164  000164  000164  000164  000164  000164  000164  000163  000163  000163  000163  000162  000162  000162  000162  000162  000162  000161  000161  000161  000161  000161  000160  000160  000160  000160  000159  000159  000159  000159  000159  000159  000158  000158  000158  000158  000158  000158  000157  000157  000157  000157  000157  000156  000156  000156  000156  000156  000155  000155  000155  000155  000155  000154  000154  000154  000154
000130  000130  000130  000130  000131  000132  000132  000132  000132  000133  000133  000133  000133  000134  000134  000135  000135  000135  000136  000136  000136  000137  000137  000137  000000  000000  000115  000115  000114  000114  000114  000114  000114  000114  000000  000110  000109  000109  000109  000109  000109  000109  000109  000109  000109  000109  000110  000110  000110  000110  000110  000110  000110  000110  000111  000111  000111  000112  000112  000112  000113  000113  000114  000114  000115  000000  000155  000155  000155  000156  000156  000156  000157  000157  000158  000158  000158  000159  000159  000160  000160  000161  000161  000162  000162  000163  000163  000164  000164  000165  000165  000165  000166  000167  000167  000168  000168  000169  000169  000170  000170  000171  000171  000172  000172  000173  000174  000175  000175  000175  000176  000176  000176  000177  000178  000179  000179  000179  000180  000181  000181  000182  000182  000183  000184  000185  000185  000186  000187  000187  000188  000189  000190  000190  000191  000192  000194  000195  000195  000195  000196  000196  000198  000199  000200  000200  000201  000202  000202  000203  000203  000204  000204  000205  000205  000206  000206  000206  000206  000206  000206  000206  000206  000205  000206  000205  000205  000205  000205  000204  000203  000203  000202  000202  000202  000202  000202  000201  000200  000000  000198  000000  000000  000000  000000  000000  000000  000000  000000  000000  000000  000000  000000  000000  000000  000000  000000  000000  000000  000000  000000  000000  000000  000000  000000  000000  000000  000000  000000  000000  000000  000000  000000  000000  000000  000000  000000  000000  000000  000000  000000  000000  000000  000000  000000  000185  000185  000185  000185  000185  000184  000184  000183  000184  000184  000183  000183  000182  000182  000182  000182  000182  000182  000181  000182  000181  000000  000183  000183  000000  000191  000187  000185  000185  000185  000185  000186  000187  000188  000189  000189  000190  000190  000191  000191  000191  000192  000192  000193  000194  000195  000195  000196  000196  000197  000198  000198  000199  000200  000200  000201  000201  000203  000000  000000  000218  000218  000218  000218  000000  000000  000000  000228  000230  000000  000000  000000  000000  000000  000239  000240  000240  000240  000240  000239  000000  000000  000166  000166  000166  000166  000166  000165  000165  000165  000164  000164  000164  000164  000164  000164  000164  000164  000163  000163  000163  000162  000162  000162  000162  000162  000162  000161  000161  000161  000161  000161  000160  000160  000160  000160  000160  000159  000159  000159  000159  000159  000158  000158  000158  000158  000158  000158  000157  000157  000157  000157  000157  000157  000156  000156  000156  000156  000156  000155  000155  000155  000155  000155  000154  000154  000154  000154
000130  000130  000130  000130  000131  000131  000132  000132  000132  000133  000133  000133  000133  000134  000134  000134  000135  000135  000135  000136  000136  000136  000137  000137  000138  000000  000000  000114  000114  000114  000114  000114  000114  000000  000110  000109  000109  000109  000109  000109  000108  000109  000109  000109  000109  000109  000109  000109  000109  000110  000110  000110  000110  000110  000111  000111  000111  000111  000111  000112  000112  000113  000113  000114  000114  000115  000000  000000  000155  000155  000156  000156  000157  000157  000158  000158  000158  000159  000159  000160  000160  000161  000161  000162  000162  000162  000163  000164  000164  000165  000165  000165  000166  000167  000167  000168  000168  000169  000169  000170  000170  000171  000171  000172  000172  000173  000174  000174  000175  000175  000175  000176  000176  000177  000178  000178  000179  000179  000180  000181  000181  000182  000182  000183  000184  000185  000185  000186  000187  000187  000188  000189  000190  000190  000191  000192  000194  000195  000195  000195  000195  000196  000197  000199  000200  000200  000201  000202  000203  000203  000203  000204  000204  000204  000205  000205  000206  000206  000206  000206  000206  000206  000206  000205  000205  000205  000205  000205  000204  000204  000203  000203  000202  000202  000202  000202  000200  000198  000199  000198  000198  000000  000000  000000  000000  000000  000000  000000  000000  000000  000000  000000  000000  000000  000000  000000  000000  000000  000000  000000  000000  000000  000000  000000  000000  000000  000000  000000  000000  000000  000000  000000  000000  000000  000000  000000  000000  000000  000000  000000  000000  000000  000000  000000  000000  000185  000185  000185  000185  000184  000184  000183  000183  000183  000183  000183  000183  000182  000182  000182  000182  000181  000182  000182  000182  000181  000183  000000  000183  000000  000000  000000  000185  000185  000185  000185  000187  000187  000187  000188  000189  000190  000190  000190  000190  000191  000192  000192  000193  000193  000195  000195  000195  000196  000196  000197  000198  000198  000200  000201  000201  000202  000203  000000  000000  000217  000217  000217  000218  000219  000000  000227  000230  000231  000233  000234  000000  000236  000237  000237  000238  000239  000240  000240  000239  000000  000167  000166  000166  000166  000165  000165  000165  000165  000165  000164  000164  000164  000164  000164  000164  000164  000164  000163  000163  000163  000162  000162  000162  000162  000162  000162  000161  000161  000161  000161  000160  000160  000160  000160  000160  000159  000159  000159  000159  000159  000159  000158  000158  000158  000158  000158  000157  000157  000157  000157  000157  000157  000156  000156  000156  000156  000156  000155  000155  000155  000155  000155  000154  000154  000154  000154  000154
000130  000130  000130  000130  000131  000131  000132  000132  000132  000132  000132  000133  000134  000134  000134  000134  000135  000135  000135  000136  000136  000136  000137  000137  000138  000000  000000  000114  000114  000114  000115  000114  000000  000000  000109  000108  000108  000108  000108  000108  000108  000108  000108  000109  000109  000109  000109  000109  000109  000109  000110  000110  000110  000110  000110  000110  000111  000111  000111  000111  000112  000112  000113  000113  000114  000114  000115  000000  000000  000000  000156  000156  000157  000157  000157  000158  000158  000159  000159  000160  000160  000160  000161  000162  000162  000162  000163  000164  000164  000165  000165  000166  000166  000167  000167  000168  000168  000169  000169  000170  000170  000171  000171  000172  000172  000173  000173  000174  000175  000175  000175  000176  000176  000177  000178  000178  000179  000179  000180  000181  000181  000182  000182  000183  000184  000185  000185  000186  000186  000187  000188  000188  000189  000190  000191  000192  000194  000194  000194  000194  000195  000196  000197  000199  000200  000200  000201  000202  000202  000203  000203  000204  000204  000204  000205  000205  000205  000206  000206  000206  000206  000205  000205  000205  000205  000205  000204  000204  000204  000204  000203  000203  000202  000202  000202  000201  000200  000199  000199  000198  000197  000000  000000  000000  000000  000000  000000  000000  000000  000000  000000  000000  000000  000000  000000  000000  000000  000000  000000  000000  000000  000000  000000  000000  000000  000000  000000  000000  000000  000000  000000  000000  000000  000000  000000  000000  000000  000000  000000  000000  000000  000000  000000  000000  000000  000186  000185  000185  000184  000184  000184  000183  000183  000183  000183  000182  000182  000182  000182  000182  000181  000181  000182  000182  000181  000181  000182  000182  000183  000000  000189  000000  000185  000184  000185  000186  000186  000187  000187  000188  000188  000189  000190  000190  000190  000191  000192  000192  000193  000193  000194  000195  000195  000196  000196  000197  000198  000199  000200  000200  000201  000201  000203  000204  000000  000217  000218  000217  000218  000000  000000  000226  000000  000231  000232  000233  000234  000234  000235  000236  000237  000239  000240  000242  000000  000000  000167  000166  000165  000166  000166  000166  000165  000165  000165  000164  000164  000164  000164  000164  000164  000164  000163  000163  000163  000162  000162  000162  000162  000162  000162  000161  000161  000161  000161  000161  000160  000160  000160  000160  000160  000159  000159  000159  000159  000159  000158  000158  000158  000158  000158  000157  000157  000157  000157  000157  000157  000157  000156  000156  000156  000156  000155  000155  000155  000155  000155  000155  000154  000154  000154  000154  000154
000129  000130  000130  000130  000131  000131  000132  000132  000132  000132  000133  000133  000134  000134  000134  000134  000135  000135  000135  000136  000136  000136  000137  000137  000138  000138  000000  000114  000114  000114  000114  000000  000000  000109  000108  000108  000108  000108  000108  000108  000108  000108  000108  000108  000108  000108  000109  000109  000109  000109  000109  000110  000110  000110  000110  000110  000110  000111  000111  000111  000111  000112  000112  000113  000113  000114  000115  000115  000116  000000  000156  000156  000156  000157  000157  000158  000158  000159  000159  000160  000160  000160  000161  000161  000162  000162  000163  000163  000164  000164  000165  000166  000166  000167  000167  000167  000168  000168  000169  000170  000170  000171  000171  000172  000172  000172  000173  000174  000174  000175  000175  000176  000176  000177  000178  000178  000179  000179  000180  000181  000181  000182  000182  000183  000184  000184  000185  000186  000186  000187  000187  000188  000188  000189  000191  000192  000193  000193  000194  000194  000195  000196  000197  000199  000200  000201  000201  000201  000202  000203  000203  000203  000204  000204  000205  000205  000205  000205  000205  000205  000205  000205  000205  000205  000205  000205  000205  000204  000204  000204  000203  000203  000202  000202  000202  000201  000200  000200  000200  000200  000000  000000  000000  000000  000000  000000  000000  000000  000000  000000  000000  000000  000000  000000  000000  000000  000000  000000  000000  000000  000000  000000  000000  000000  000000  000000  000000  000000  000000  000000  000000  000000  000000  000000  000000  000000  000000  000000  000000  000000  000000  000000  000000  000000  000000  000000  000184  000184  000184  000184  000184  000183  000183  000183  000183  000182  000182  000182  000182  000182  000181  000181  000182  000181  000181  000181  000181  000182  000000  000000  000189  000187  000184  000184  000185  000185  000186  000187  000188  000188  000188  000189  000190  000190  000190  000191  000192  000193  000193  000193  000194  000195  000195  000196  000197  000197  000198  000199  000199  000200  000200  000202  000203  000204  000000  000217  000218  000217  000217  000218  000000  000000  000000  000231  000231  000232  000232  000233  000234  000235  000236  000237  000239  000241  000000  000000  000167  000166  000166  000165  000165  000165  000165  000165  000165  000164  000164  000163  000163  000163  000164  000163  000163  000163  000163  000162  000162  000162  000162  000162  000161  000161  000161  000161  000161  000161  000160  000160  000160  000160  000159  000159  000159  000159  000159  000158  000158  000158  000158  000158  000157  000157  000157  000157  000157  000157  000156  000156  000156  000156  000156  000155  000155  000155  000155  000155  000155  000155  000154  000154  000154  000154  000153
000129  000130  000130  000130  000131  000131  000131  000132  000132  000132  000132  000133  000134  000134  000134  000134  000134  000135  000135  000135  000136  000136  000137  000137  000138  000138  000000  000000  000115  000114  000000  000000  000109  000108  000108  000108  000108  000108  000108  000108  000108  000108  000108  000108  000108  000108  000108  000108  000109  000109  000109  000109  000109  000109  000110  000110  000110  000110  000110  000111  000111  000111  000112  000112  000113  000113  000114  000115  000115  000116  000000  000156  000156  000157  000157  000158  000158  000159  000159  000160  000160  000160  000161  000161  000162  000162  000163  000163  000164  000164  000164  000165  000166  000167  000167  000167  000168  000168  000169  000170  000170  000171  000171  000172  000172  000172  000173  000173  000174  000175  000175  000176  000176  000177  000178  000178  000178  000179  000180  000180  000181  000181  000182  000183  000184  000184  000185  000186  000186  000186  000187  000188  000188  000189  000191  000192  000193  000193  000194  000194  000195  000196  000198  000199  000200  000201  000201  000201  000202  000202  000203  000203  000204  000204  000205  000205  000205  000205  000205  000205  000205  000205  000205  000205  000205  000204  000204  000204  000204  000203  000203  000202  000202  000202  000202  000201  000200  000200  000199  000200  000000  000000  000000  000000  000000  000000  000000  000000  000000  000000  000000  000000  000000  000000  000000  000000  000000  000000  000000  000000  000000  000000  000000  000000  000000  000000  000000  000000  000000  000000  000000  000000  000000  000000  000000  000000  000000  000000  000000  000000  000000  000000  000000  000000  000000  000184  000185  000185  000185  000184  000184  000183  000183  000183  000183  000182  000182  000182  000182  000182  000181  000181  000181  000181  000181  000181  000182  000181  000000  000000  000190  000000  000184  000184  000185  000186  000186  000187  000188  000188  000188  000189  000190  000190  000190  000191  000192  000193  000193  000193  000194  000194  000195  000197  000197  000198  000198  000199  000199  000199  000000  000000  000203  000000  000000  000000  000218  000000  000000  000000  000000  000000  000000  000000  000230  000231  000232  000233  000234  000235  000235  000236  000238  000000  000241  000000  000000  000167  000166  000165  000165  000165  000165  000165  000164  000164  000164  000163  000163  000163  000163  000163  000163  000163  000162  000162  000162  000162  000162  000161  000161  000161  000161  000161  000161  000161  000160  000160  000160  000160  000159  000159  000159  000159  000159  000158  000158  000158  000158  000157  000157  000157  000157  000157  000157  000157  000156  000156  000156  000156  000156  000155  000155  000155  000155  000155  000155  000154  000154  000154  000154  000154  000153
000129  000129  000130  000131  000131  000131  000131  000131  000132  000132  000133  000133  000133  000134  000134  000134  000135  000135  000135  000135  000136  000136  000137  000137  000137  000138  000139  000000  000000  000000  000000  000109  000108  000107  000107  000107  000108  000108  000108  000108  000108  000108  000108  000108  000108  000108  000108  000108  000108  000109  000109  000109  000109  000109  000109  000110  000110  000110  000110  000110  000111  000111  000111  000112  000112  000113  000113  000114  000115  000115  000116  000000  000000  000157  000157  000158  000158  000159  000159  000160  000160  000160  000161  000161  000162  000162  000163  000163  000164  000164  000164  000165  000166  000166  000167  000167  000168  000168  000169  000169  000170  000170  000171  000171  000172  000172  000173  000173  000174  000175  000175  000176  000176  000176  000177  000178  000178  000179  000179  000180  000181  000181  000182  000183  000184  000184  000185  000185  000186  000187  000187  000188  000189  000190  000190  000192  000193  000194  000194  000194  000195  000196  000198  000199  000200  000200  000201  000201  000202  000202  000202  000203  000203  000204  000205  000205  000205  000205  000205  000205  000205  000205  000205  000205  000204  000204  000204  000204  000204  000203  000202  000202  000202  000202  000201  000201  000200  000198  000198  000199  000000  000000  000000  000000  000000  000000  000000  000000  000000  000000  000000  000000  000000  000000  000000  000000  000000  000000  000000  000000  000000  000000  000000  000000  000000  000000  000000  000000  000000  000000  000000  000000  000000  000000  000000  000000  000000  000000  000000  000000  000000  000000  000000  000000  000000  000184  000184  000185  000185  000185  000184  000184  000183  000183  000183  000182  000182  000182  000181  000182  000181  000181  000181  000181  000181  000181  000182  000182  000183  000000  000189  000187  000184  000184  000184  000185  000186  000186  000187  000187  000188  000189  000189  000190  000190  000191  000192  000192  000193  000193  000193  000194  000195  000196  000196  000196  000197  000198  000199  000197  000000  000000  000000  000000  000000  000000  000000  000000  000000  000000  000000  000000  000000  000000  000000  000000  000232  000233  000000  000235  000235  000237  000238  000000  000000  000000  000000  000167  000166  000165  000165  000165  000165  000165  000164  000164  000164  000163  000163  000163  000163  000163  000163  000163  000162  000162  000162  000162  000162  000161  000161  000161  000161  000161  000161  000160  000160  000160  000160  000160  000159  000159  000159  000159  000159  000158  000158  000158  000158  000157  000157  000157  000157  000157  000157  000156  000156  000156  000156  000156  000155  000155  000155  000155  000155  000155  000154  000154  000154  000154  000154  000154  000153
000129  000129  000130  000130  000131  000131  000131  000131  000132  000132  000132  000133  000133  000133  000134  000134  000135  000135  000135  000135  000136  000136  000137  000137  000137  000138  000138  000000  000000  000110  000108  000108  000107  000107  000107  000107  000107  000107  000107  000107  000107  000107  000107  000108  000108  000108  000108  000108  000108  000109  000109  000109  000109  000109  000109  000109  000110  000110  000110  000110  000110  000111  000111  000112  000112  000112  000113  000113  000114  000115  000115  000116  000000  000000  000157  000157  000158  000159  000159  000159  000160  000160  000161  000161  000162  000162  000163  000163  000164  000164  000164  000165  000166  000166  000167  000167  000168  000168  000169  000169  000170  000170  000171  000171  000172  000172  000173  000173  000174  000175  000175  000175  000176  000176  000177  000177  000178  000179  000179  000180  000180  000181  000182  000183  000184  000184  000185  000185  000186  000187  000187  000188  000189  000190  000191  000192  000193  000194  000194  000194  000195  000196  000198  000199  000199  000200  000200  000201  000201  000202  000202  000202  000203  000204  000205  000205  000205  000205  000205  000205  000205  000205  000205  000204  000204  000204  000204  000204  000203  000202  000202  000202  000202  000202  000202  000201  000200  000198  000000  000000  000000  000000  000000  000000  000000  000000  000000  000000  000000  000000  000000  000000  000000  000000  000000  000000  000000  000000  000000  000000  000000  000000  000000  000000  000000  000000  000000  000000  000000  000000  000000  000000  000000  000000  000000  000000  000000  000000  000000  000000  000000  000000  000000  000000  000000  000184  000185  000185  000184  000184  000184  000183  000183  000182  000182  000182  000182  000182  000181  000181  000181  000181  000181  000181  000181  000181  000183  000182  000182  000000  000190  000000  000184  000183  000184  000185  000185  000185  000185  000186  000187  000188  000189  000190  000190  000191  000191  000192  000193  000193  000193  000194  000195  000196  000196  000196  000196  000197  000198  000200  000000  000000  000000  000000  000000  000000  000241  000243  000244  000244  000243  000243  000243  000243  000242  000000  000000  000000  000000  000238  000000  000000  000240  000000  000000  000000  000000  000166  000166  000165  000165  000165  000165  000165  000164  000164  000164  000164  000163  000163  000163  000163  000163  000163  000162  000162  000162  000162  000162  000161  000161  000161  000161  000161  000160  000160  000160  000160  000160  000159  000159  000159  000159  000159  000158  000158  000158  000158  000158  000157  000157  000157  000157  000157  000156  000156  000156  000156  000156  000156  000155  000155  000155  000155  000155  000154  000154  000154  000154  000154  000154  000153  000153
000129  000129  000130  000130  000131  000131  000131  000132  000132  000132  000133  000133  000133  000133  000134  000134  000135  000135  000135  000135  000136  000136  000137  000137  000137  000137  000138  000138  000000  000000  000108  000107  000107  000107  000107  000107  000107  000107  000107  000107  000107  000107  000107  000107  000108  000108  000108  000108  000108  000108  000108  000109  000109  000109  000109  000109  000109  000110  000110  000110  000110  000111  000111  000111  000112  000112  000113  000113  000114  000114  000115  000115  000116  000117  000000  000157  000158  000159  000159  000159  000160  000160  000161  000161  000162  000162  000163  000163  000163  000164  000164  000165  000165  000166  000167  000167  000168  000168  000169  000169  000169  000170  000170  000171  000172  000172  000173  000173  000174  000174  000175  000175  000176  000176  000176  000177  000178  000179  000179  000180  000180  000181  000182  000182  000183  000184  000185  000185  000186  000186  000188  000189  000189  000190  000190  000192  000193  000193  000194  000194  000194  000196  000197  000198  000199  000199  000200  000200  000201  000201  000202  000202  000203  000204  000204  000205  000205  000205  000204  000204  000204  000204  000204  000204  000204  000204  000204  000203  000203  000202  000202  000202  000202  000202  000202  000202  000200  000199  000199  000000  000000  000000  000000  000000  000000  000000  000000  000000  000000  000000  000000  000000  000000  000000  000000  000000  000000  000000  000000  000000  000000  000000  000000  000000  000000  000000  000000  000000  000000  000000  000000  000000  000000  000000  000000  000000  000000  000000  000000  000000  000000  000000  000000  000000  000000  000185  000185  000185  000184  000184  000183  000183  000182  000182  000182  000182  000182  000182  000181  000181  000181  000181  000180  000181  000180  000181  000182  000182  000181  000000  000000  000000  000184  000183  000184  000184  000184  000185  000186  000186  000187  000187  000189  000189  000190  000190  000191  000192  000193  000193  000194  000194  000195  000196  000196  000196  000197  000196  000199  000200  000000  000000  000000  000000  000000  000000  000242  000243  000243  000244  000243  000243  000242  000242  000242  000242  000242  000242  000000  000000  000000  000000  000242  000000  000000  000242  000000  000166  000166  000165  000165  000165  000165  000165  000164  000164  000164  000164  000163  000163  000163  000163  000163  000162  000162  000162  000162  000162  000161  000161  000161  000161  000161  000161  000160  000160  000160  000160  000159  000159  000159  000159  000159  000158  000158  000158  000158  000158  000157  000157  000157  000157  000157  000157  000156  000156  000156  000156  000156  000155  000155  000155  000155  000155  000155  000154  000154  000154  000154  000154  000153  000153  000153
000129  000130  000130  000130  000131  000131  000131  000131  000132  000132  000132  000133  000133  000133  000134  000134  000134  000134  000135  000135  000136  000136  000137  000137  000137  000138  000138  000138  000139  000000  000107  000107  000107  000107  000107  000107  000107  000107  000107  000107  000107  000107  000107  000107  000107  000108  000108  000108  000108  000108  000108  000108  000108  000109  000109  000109  000109  000110  000110  000110  000110  000110  000111  000111  000111  000112  000112  000113  000113  000114  000115  000115  000116  000117  000118  000000  000158  000158  000159  000159  000160  000160  000161  000161  000161  000162  000162  000163  000163  000164  000164  000165  000165  000166  000166  000167  000167  000168  000168  000169  000169  000170  000170  000171  000171  000172  000173  000173  000174  000174  000175  000175  000175  000176  000176  000177  000178  000179  000179  000180  000180  000181  000182  000183  000183  000184  000185  000185  000186  000187  000187  000188  000189  000190  000191  000191  000192  000193  000193  000193  000194  000195  000196  000197  000198  000199  000200  000200  000201  000201  000201  000202  000203  000203  000204  000204  000205  000204  000204  000204  000204  000204  000204  000204  000204  000203  000203  000203  000203  000202  000202  000201  000201  000202  000203  000201  000200  000200  000199  000198  000198  000198  000000  000000  000000  000000  000000  000000  000000  000000  000000  000000  000000  000000  000000  000000  000000  000000  000000  000000  000000  000000  000000  000000  000000  000000  000000  000000  000000  000000  000000  000000  000000  000000  000000  000000  000000  000000  000000  000000  000000  000000  000000  000000  000000  000185  000185  000184  000184  000184  000183  000182  000182  000182  000182  000182  000182  000181  000181  000181  000181  000181  000181  000180  000180  000180  000181  000181  000181  000184  000189  000000  000183  000183  000183  000184  000184  000185  000186  000186  000187  000188  000189  000189  000189  000190  000191  000191  000192  000193  000193  000194  000195  000196  000196  000197  000197  000198  000199  000200  000201  000202  000000  000202  000202  000241  000241  000242  000243  000243  000243  000243  000243  000243  000243  000244  000244  000244  000244  000244  000000  000244  000244  000245  000246  000241  000000  000166  000166  000165  000165  000165  000165  000165  000164  000164  000164  000164  000164  000163  000163  000162  000162  000162  000162  000162  000162  000162  000161  000161  000161  000161  000161  000160  000160  000160  000160  000159  000159  000159  000159  000159  000159  000158  000158  000158  000158  000157  000157  000157  000157  000157  000157  000156  000156  000156  000156  000156  000156  000155  000155  000155  000155  000155  000154  000154  000154  000154  000154  000153  000153  000153  000153
000129  000130  000130  000130  000130  000131  000131  000131  000132  000132  000132  000132  000133  000133  000133  000134  000134  000134  000135  000135  000136  000136  000136  000137  000137  000137  000138  000138  000000  000107  000107  000106  000106  000106  000107  000107  000106  000106  000106  000106  000107  000107  000107  000107  000107  000107  000108  000108  000108  000108  000108  000108  000108  000109  000109  000109  000109  000109  000109  000110  000110  000110  000110  000111  000111  000111  000112  000112  000113  000113  000114  000115  000116  000116  000118  000000  000158  000158  000159  000159  000160  000160  000160  000161  000161  000162  000162  000163  000163  000164  000164  000165  000165  000166  000166  000167  000167  000168  000168  000169  000170  000170  000171  000171  000171  000172  000172  000173  000174  000174  000175  000175  000175  000176  000176  000177  000177  000178  000179  000180  000180  000181  000182  000183  000183  000184  000184  000185  000185  000186  000187  000188  000188  000190  000191  000191  000192  000193  000193  000193  000194  000195  000195  000196  000198  000199  000200  000200  000200  000200  000201  000201  000202  000203  000203  000204  000204  000204  000204  000204  000204  000204  000203  000203  000203  000203  000203  000203  000203  000202  000202  000201  000201  000201  000201  000200  000200  000199  000199  000199  000000  000000  000000  000000  000000  000000  000000  000000  000000  000119  000000  000000  000000  000000  000000  000000  000000  000000  000000  000000  000000  000000  000000  000000  000000  000000  000000  000000  000000  000000  000000  000000  000000  000000  000000  000000  000000  000000  000000  000000  000000  000000  000000  000000  000000  000184  000184  000184  000184  000183  000183  000182  000182  000182  000182  000182  000182  000181  000181  000181  000181  000181  000180  000180  000180  000000  000179  000180  000182  000183  000188  000000  000184  000183  000183  000183  000184  000185  000186  000186  000187  000188  000189  000189  000189  000190  000191  000191  000192  000193  000193  000194  000195  000195  000196  000196  000197  000198  000198  000199  000200  000201  000201  000202  000203  000241  000241  000242  000243  000243  000244  000243  000243  000243  000244  000245  000245  000245  000245  000245  000245  000245  000245  000246  000000  000243  000000  000166  000166  000165  000165  000165  000165  000165  000164  000164  000164  000164  000163  000163  000163  000162  000162  000162  000162  000162  000162  000161  000161  000161  000161  000161  000161  000160  000160  000160  000160  000160  000159  000159  000159  000159  000158  000158  000158  000158  000158  000157  000157  000157  000157  000157  000156  000156  000156  000156  000156  000156  000155  000155  000155  000155  000155  000155  000154  000154  000154  000154  000154  000153  000153  000153  000153
000129  000130  000130  000130  000130  000131  000131  000131  000131  000132  000132  000133  000133  000133  000133  000134  000134  000134  000135  000135  000136  000136  000136  000137  000137  000137  000138  000139  000000  000107  000106  000106  000106  000106  000106  000107  000106  000106  000106  000106  000106  000107  000107  000107  000107  000107  000107  000108  000108  000108  000108  000108  000108  000108  000108  000109  000109  000109  000109  000109  000109  000110  000110  000110  000111  000111  000111  000112  000112  000113  000114  000114  000115  000116  000117  000000  000000  000158  000158  000159  000159  000160  000160  000161  000161  000162  000162  000163  000163  000164  000164  000165  000165  000166  000166  000167  000167  000167  000168  000169  000169  000170  000170  000171  000171  000172  000173  000173  000174  000174  000175  000175  000175  000175  000176  000177  000178  000178  000179  000180  000180  000181  000181  000182  000183  000184  000184  000185  000185  000186  000187  000187  000188  000189  000190  000191  000193  000193  000193  000193  000194  000195  000195  000196  000197  000200  000201  000201  000200  000200  000201  000201  000202  000202  000203  000204  000204  000204  000204  000204  000204  000203  000203  000203  000203  000203  000202  000202  000202  000202  000202  000201  000201  000201  000201  000200  000199  000199  000199  000199  000000  000000  000000  000000  000000  000000  000000  000000  000000  000000  000000  000000  000000  000000  000000  000000  000000  000000  000000  000000  000000  000000  000000  000000  000000  000000  000000  000000  000000  000000  000000  000000  000000  000000  000000  000000  000000  000000  000000  000000  000000  000000  000000  000000  000000  000185  000184  000184  000184  000183  000183  000182  000182  000182  000182  000182  000182  000181  000181  000181  000181  000180  000180  000180  000181  000179  000180  000181  000181  000000  000189  000188  000184  000183  000183  000183  000183  000184  000185  000186  000187  000188  000189  000189  000189  000190  000190  000191  000192  000193  000193  000193  000194  000195  000196  000197  000197  000198  000198  000199  000199  000200  000201  000202  000000  000000  000241  000242  000243  000244  000244  000243  000243  000243  000244  000245  000245  000245  000245  000245  000246  000245  000246  000245  000245  000000  000000  000166  000165  000165  000164  000164  000165  000164  000164  000164  000164  000163  000163  000163  000163  000162  000162  000162  000162  000162  000161  000161  000161  000161  000161  000161  000160  000160  000160  000160  000160  000160  000159  000159  000159  000159  000158  000158  000158  000158  000158  000157  000157  000157  000157  000157  000156  000156  000156  000156  000156  000155  000155  000155  000155  000155  000155  000155  000154  000154  000154  000154  000154  000153  000153  000153  000153
000129  000129  000130  000130  000130  000131  000131  000131  000131  000132  000132  000132  000133  000133  000133  000134  000134  000134  000135  000135  000136  000136  000136  000137  000137  000137  000138  000000  000000  000106  000106  000106  000106  000106  000106  000106  000106  000106  000106  000106  000106  000107  000107  000107  000107  000107  000107  000108  000108  000108  000108  000108  000108  000108  000108  000108  000109  000109  000109  000109  000109  000109  000110  000110  000110  000111  000111  000112  000112  000113  000113  000114  000115  000115  000116  000118  000000  000157  000158  000159  000159  000160  000160  000161  000161  000162  000162  000163  000163  000164  000164  000165  000165  000166  000166  000167  000167  000167  000168  000168  000169  000170  000170  000171  000171  000172  000173  000173  000174  000174  000174  000175  000175  000175  000176  000177  000178  000178  000179  000179  000180  000181  000181  000182  000183  000183  000184  000185  000185  000186  000186  000187  000188  000189  000190  000191  000192  000193  000193  000193  000194  000194  000195  000195  000197  000199  000200  000200  000200  000200  000200  000201  000201  000201  000203  000204  000204  000204  000204  000204  000204  000203  000203  000203  000203  000202  000202  000202  000202  000202  000202  000201  000201  000201  000201  000199  000197  000199  000200  000199  000000  000000  000000  000000  000000  000000  000000  000000  000000  000000  000000  000000  000000  000000  000000  000000  000000  000000  000000  000000  000000  000000  000000  000000  000000  000000  000000  000000  000000  000000  000000  000000  000000  000000  000000  000000  000000  000000  000000  000000  000000  000000  000000  000000  000000  000184  000184  000183  000183  000183  000183  000182  000182  000182  000182  000182  000181  000181  000181  000181  000181  000180  000180  000180  000180  000181  000179  000180  000180  000186  000000  000000  000184  000183  000183  000183  000183  000184  000185  000186  000186  000187  000188  000188  000189  000190  000190  000191  000192  000192  000193  000193  000194  000195  000195  000196  000196  000197  000198  000199  000199  000199  000201  000202  000202  000000  000000  000000  000243  000243  000243  000243  000243  000243  000244  000245  000245  000245  000244  000245  000245  000244  000245  000246  000000  000242  000000  000000  000165  000164  000164  000164  000164  000164  000164  000164  000163  000163  000163  000163  000163  000162  000162  000162  000162  000161  000161  000161  000161  000161  000161  000160  000160  000160  000160  000160  000159  000159  000159  000159  000159  000158  000158  000158  000158  000158  000157  000157  000157  000157  000157  000157  000156  000156  000156  000156  000156  000155  000155  000155  000155  000155  000154  000154  000154  000154  000154  000154  000153  000153  000153  000153  000153
000129  000129  000129  000130  000130  000130  000131  000131  000131  000132  000132  000133  000133  000133  000133  000134  000134  000134  000135  000135  000136  000136  000136  000136  000137  000137  000138  000000  000107  000106  000106  000106  000106  000106  000106  000106  000106  000106  000106  000106  000106  000106  000106  000107  000107  000107  000107  000108  000108  000108  000108  000108  000108  000108  000108  000108  000108  000109  000109  000109  000109  000109  000109  000110  000110  000110  000111  000111  000112  000112  000113  000114  000114  000115  000116  000118  000000  000158  000158  000159  000159  000160  000160  000160  000161  000162  000162  000163  000163  000164  000164  000164  000165  000166  000166  000167  000167  000167  000168  000168  000169  000169  000170  000171  000171  000172  000173  000173  000174  000174  000174  000174  000175  000176  000176  000177  000178  000178  000179  000179  000180  000180  000181  000182  000182  000183  000184  000185  000185  000186  000186  000187  000188  000189  000190  000191  000192  000193  000193  000193  000194  000194  000195  000195  000197  000198  000199  000199  000200  000200  000200  000200  000201  000201  000202  000203  000204  000204  000204  000204  000203  000203  000203  000203  000203  000202  000202  000202  000202  000202  000202  000201  000201  000200  000200  000198  000197  000199  000000  000000  000000  000000  000000  000000  000000  000000  000000  000000  000000  000000  000000  000000  000000  000000  000000  000000  000000  000000  000000  000000  000000  000000  000000  000000  000000  000000  000000  000000  000000  000000  000000  000000  000000  000000  000000  000000  000000  000000  000000  000000  000000  000000  000000  000000  000000  000184  000184  000183  000183  000183  000183  000182  000182  000182  000182  000182  000181  000181  000181  000181  000181  000180  000180  000180  000180  000179  000180  000180  000181  000000  000000  000186  000184  000183  000183  000183  000184  000184  000185  000186  000186  000187  000187  000188  000188  000189  000190  000191  000191  000192  000193  000193  000194  000195  000195  000195  000196  000197  000198  000198  000199  000199  000200  000202  000000  000000  000000  000000  000000  000000  000243  000243  000243  000243  000244  000244  000244  000244  000244  000244  000244  000244  000245  000245  000245  000243  000000  000000  000164  000164  000164  000164  000164  000164  000164  000163  000163  000163  000163  000163  000162  000162  000162  000162  000161  000161  000161  000161  000161  000161  000160  000160  000160  000160  000160  000159  000159  000159  000159  000159  000159  000158  000158  000158  000158  000158  000157  000157  000157  000157  000157  000157  000156  000156  000156  000156  000156  000155  000155  000155  000155  000155  000154  000154  000154  000154  000154  000153  000153  000153  000153  000153  000153
000129  000129  000129  000129  000130  000130  000131  000131  000132  000132  000132  000132  000133  000133  000133  000133  000134  000134  000134  000135  000135  000136  000136  000136  000137  000137  000138  000000  000106  000106  000106  000106  000106  000106  000106  000106  000106  000106  000106  000106  000106  000106  000106  000107  000107  000107  000107  000107  000107  000108  000108  000108  000108  000108  000108  000108  000108  000108  000108  000109  000109  000109  000109  000109  000110  000110  000111  000111  000111  000112  000113  000114  000114  000115  000115  000117  000000  000158  000158  000159  000159  000160  000160  000161  000161  000162  000162  000163  000163  000163  000164  000164  000165  000166  000166  000166  000167  000167  000168  000168  000169  000169  000170  000171  000171  000172  000172  000173  000173  000174  000174  000174  000175  000176  000176  000177  000177  000178  000178  000179  000179  000180  000181  000182  000182  000183  000184  000184  000185  000185  000186  000187  000188  000189  000190  000191  000192  000193  000193  000193  000194  000194  000195  000195  000196  000198  000198  000199  000199  000200  000200  000200  000201  000202  000203  000203  000204  000203  000203  000203  000203  000203  000203  000203  000203  000202  000202  000202  000202  000202  000202  000201  000200  000200  000200  000199  000197  000197  000000  000000  000000  000000  000000  000000  000000  000000  000000  000000  000000  000000  000000  000000  000000  000000  000000  000000  000000  000000  000000  000000  000000  000000  000000  000000  000000  000000  000000  000000  000000  000000  000000  000000  000000  000000  000000  000000  000000  000000  000000  000000  000000  000000  000000  000000  000000  000185  000184  000184  000183  000183  000183  000183  000182  000182  000182  000181  000181  000181  000181  000181  000180  000180  000180  000180  000179  000179  000180  000183  000181  000182  000188  000188  000183  000183  000182  000183  000183  000184  000185  000186  000186  000187  000187  000188  000188  000189  000190  000191  000191  000192  000193  000193  000194  000194  000195  000195  000196  000196  000197  000198  000199  000199  000199  000202  000000  000000  000215  000215  000215  000216  000000  000243  000000  000244  000243  000244  000243  000243  000243  000000  000242  000242  000000  000000  000000  000000  000000  000165  000165  000164  000164  000164  000164  000164  000164  000163  000163  000163  000163  000163  000162  000162  000162  000162  000161  000161  000161  000161  000161  000160  000160  000160  000160  000160  000159  000159  000159  000159  000159  000158  000158  000158  000158  000158  000158  000157  000157  000157  000157  000157  000156  000156  000156  000156  000156  000156  000155  000155  000155  000155  000155  000155  000154  000154  000154  000154  000154  000153  000153  000153  000153  000153  000153
