  000169  000170  000169  000169  000169  000169  000169  000169  000169  000170  000169  000169  000169  000169  000169  000169  000169  000169  000170  000170  000170  000169  000169  000169  000169  000170  000169  000169  000169  000169  000169  000169  000168  000169  000169  000169  000168  000168  000168  000168  000168  000168  000168  000168  000168  000169  000168  000168  000168  000168  000168  000168  000168  000168  000169  000169  000169  000168  000169  000168  000168  000168  000169  000169  000168  000168  000168  000168  000168  000168  000168  000168  000168  000168  000168  000168  000168  000168  000168  000167  000167  000168  000168  000168  000168  000167  000167  000167  000167  000167  000167  000167  000167  000167  000168  000167  000167  000168  000168  000000  000000  000000  000000  000000  000000  000167  000167  000000  000000  000000  000000  000113  000113  000113  000113  000113  000113  000113  000000  000166  000167  000167  000167  000167  000168  000167  000167  000167  000167  000167  000167  000167  000167
  000170  000171  000170  000170  000170  000170  000170  000170  000170  000171  000170  000170  000170  000170  000170  000171  000170  000170  000171  000171  000172  000171  000170  000170  000170  000171  000171  000171  000170  000170  000170  000170  000170  000170  000170  000170  000170  000170  000170  000170  000169  000169  000169  000169  000169  000170  000170  000170  000169  000169  000170  000169  000169  000170  000170  000170  000170  000170  000170  000170  000170  000170  000170  000169  000000  000169  000169  000169  000169  000169  000169  000170  000170  000169  000169  000169  000169  000000  000169  000169  000169  000169  000169  000169  000169  000169  000169  000169  000169  000169  000169  000169  000169  000000  000000  000169  000169  000169  000169  000169  000000  000000  000000  000000  000000  000000  000000  000000  000000  000000  000000  000113  000113  000113  000113  000113  000113  000000  000000  000168  000168  000168  000168  000168  000168  000168  000168  000167  000168  000168  000168  000168  000168
  000171  000171  000171  000171  000171  000172  000172  000172  000172  000172  000172  000172  000171  000171  000171  000172  000172  000172  000172  000172  000173  000172  000172  000172  000172  000172  000172  000172  000171  000171  000171  000171  000171  000171  000170  000171  000171  000171  000171  000171  000170  000170  000170  000170  000171  000171  000171  000171  000171  000171  000171  000172  000171  000171  000171  000172  000171  000171  000171  000171  000171  000171  000171  000000  000000  000171  000170  000171  000170  000171  000171  000171  000171  000171  000170  000170  000170  000000  000000  000000  000000  000000  000170  000170  000170  000170  000170  000170  000000  000000  000171  000170  000170  000000  000000  000170  000170  000000  000171  000171  000170  000170  000170  000170  000170  000170  000000  000000  000000  000000  000000  000113  000112  000112  000112  000112  000112  000000  000000  000169  000170  000169  000169  000169  000170  000170  000169  000169  000169  000169  000169  000169  000169
  000173  000173  000173  000173  000173  000173  000173  000173  000173  000173  000173  000173  000173  000173  000173  000173  000174  000174  000174  000174  000174  000174  000174  000173  000173  000173  000173  000173  000173  000173  000173  000173  000173  000172  000172  000172  000172  000173  000173  000173  000172  000172  000172  000172  000173  000173  000172  000172  000172  000173  000173  000173  000173  000172  000172  000172  000172  000172  000172  000173  000173  000173  000173  000000  000000  000000  000172  000172  000172  000172  000172  000172  000172  000172  000172  000172  000000  000000  000000  000000  000000  000000  000172  000172  000171  000172  000171  000171  000171  000172  000172  000172  000172  000000  000000  000172  000171  000172  000172  000172  000172  000172  000172  000171  000171  000172  000172  000000  000000  000000  000000  000113  000112  000112  000112  000112  000112  000112  000000  000171  000171  000170  000170  000171  000171  000171  000171  000171  000171  000171  000170  000170  000170
  000175  000174  000174  000174  000175  000174  000174  000174  000175  000175  000175  000175  000175  000175  000174  000174  000175  000175  000175  000175  000175  000175  000175  000175  000175  000175  000175  000174  000174  000174  000175  000175  000174  000174  000173  000173  000173  000174  000174  000174  000174  000173  000173  000174  000174  000174  000173  000174  000174  000174  000173  000174  000174  000173  000172  000173  000173  000174  000174  000174  000174  000000  000000  000000  000000  000000  000173  000174  000174  000174  000174  000173  000173  000173  000173  000174  000174  000000  000174  000174  000174  000174  000173  000173  000173  000172  000172  000172  000173  000173  000174  000173  000173  000172  000172  000173  000173  000173  000173  000173  000173  000174  000174  000173  000173  000173  000173  000173  000000  000000  000000  000113  000112  000112  000112  000112  000112  000112  000000  000171  000172  000171  000172  000172  000173  000173  000173  000172  000172  000173  000172  000172  000172
  000176  000176  000176  000176  000176  000176  000176  000176  000176  000176  000176  000175  000176  000176  000176  000176  000176  000176  000176  000176  000177  000177  000177  000176  000176  000176  000176  000176  000176  000176  000176  000176  000175  000176  000175  000175  000175  000176  000176  000176  000175  000175  000175  000175  000175  000175  000175  000175  000176  000000  000000  000000  000175  000175  000000  000174  000175  000175  000175  000175  000000  000000  000175  000000  000000  000000  000000  000175  000176  000176  000175  000175  000175  000175  000174  000175  000175  000174  000174  000175  000175  000175  000174  000174  000175  000174  000174  000174  000174  000174  000175  000174  000174  000174  000174  000174  000000  000174  000174  000174  000174  000175  000175  000175  000175  000175  000000  000000  000000  000000  000000  000113  000112  000112  000112  000112  000112  000112  000000  000000  000173  000173  000173  000173  000175  000174  000174  000174  000174  000174  000174  000174  000173
  000177  000178  000178  000178  000178  000178  000177  000177  000177  000177  000177  000178  000177  000178  000178  000178  000178  000178  000178  000178  000178  000178  000000  000178  000178  000177  000178  000177  000177  000177  000177  000176  000176  000177  000177  000177  000177  000177  000177  000177  000176  000176  000177  000177  000177  000177  000177  000177  000177  000177  000178  000178  000177  000177  000177  000000  000000  000177  000177  000177  000178  000177  000177  000177  000000  000000  000000  000000  000177  000177  000177  000176  000176  000176  000176  000176  000176  000000  000000  000176  000176  000176  000000  000175  000176  000175  000176  000176  000176  000176  000176  000176  000175  000177  000176  000176  000176  000176  000176  000175  000175  000176  000177  000177  000177  000177  000000  000000  000000  000000  000000  000114  000112  000112  000112  000112  000112  000112  000113  000000  000176  000176  000177  000177  000175  000176  000177  000176  000175  000175  000177  000176  000177
  000180  000179  000179  000179  000179  000180  000179  000178  000179  000178  000179  000179  000179  000179  000179  000179  000179  000179  000179  000179  000179  000180  000181  000000  000179  000179  000179  000179  000179  000179  000178  000178  000178  000179  000179  000178  000179  000179  000178  000177  000177  000178  000178  000179  000179  000178  000178  000178  000178  000178  000178  000179  000178  000178  000179  000179  000178  000178  000178  000178  000178  000178  000178  000178  000000  000000  000000  000000  000000  000179  000177  000179  000178  000177  000176  000177  000000  000179  000179  000178  000180  000178  000178  000177  000178  000178  000178  000178  000178  000178  000178  000177  000178  000179  000179  000177  000178  000178  000178  000179  000180  000180  000179  000178  000179  000179  000178  000000  000183  000000  000000  000114  000112  000112  000112  000112  000111  000111  000112  000000  000178  000178  000178  000178  000177  000177  000178  000178  000178  000179  000178  000178  000178
  000182  000181  000179  000180  000181  000181  000181  000180  000180  000181  000180  000180  000180  000181  000180  000179  000180  000180  000181  000181  000181  000182  000181  000182  000181  000181  000181  000181  000181  000181  000181  000180  000181  000181  000181  000180  000180  000180  000179  000179  000178  000179  000179  000180  000180  000179  000179  000179  000179  000179  000180  000180  000180  000180  000181  000180  000180  000179  000180  000179  000180  000180  000180  000180  000000  000000  000182  000181  000180  000179  000181  000180  000181  000179  000180  000000  000179  000180  000181  000180  000180  000180  000180  000181  000180  000180  000180  000180  000180  000179  000178  000179  000180  000180  000180  000180  000180  000180  000180  000181  000181  000181  000182  000182  000181  000180  000181  000000  000183  000183  000000  000114  000112  000112  000112  000112  000111  000111  000111  000000  000179  000180  000180  000179  000179  000180  000179  000179  000179  000179  000179  000179  000179
  000183  000183  000181  000182  000183  000183  000182  000181  000181  000182  000181  000181  000182  000182  000182  000182  000181  000182  000182  000182  000183  000183  000182  000182  000183  000182  000182  000182  000182  000182  000182  000182  000182  000182  000182  000181  000182  000182  000181  000181  000181  000181  000181  000181  000181  000181  000181  000181  000181  000181  000181  000181  000181  000182  000182  000181  000181  000182  000181  000181  000181  000182  000181  000181  000000  000000  000000  000000  000000  000182  000182  000184  000183  000182  000183  000183  000182  000182  000182  000181  000180  000182  000182  000182  000182  000181  000182  000182  000182  000182  000182  000182  000183  000182  000181  000182  000182  000182  000182  000182  000182  000182  000183  000183  000182  000182  000000  000184  000185  000184  000000  000000  000112  000112  000112  000111  000111  000111  000112  000000  000180  000181  000181  000181  000180  000181  000181  000181  000180  000180  000180  000180  000180
  000184  000183  000183  000184  000184  000184  000183  000183  000183  000183  000183  000183  000183  000183  000184  000183  000183  000183  000184  000184  000184  000184  000184  000184  000184  000185  000185  000184  000184  000184  000184  000184  000184  000183  000183  000183  000183  000184  000184  000183  000183  000183  000183  000182  000183  000183  000182  000183  000183  000182  000183  000183  000183  000184  000183  000183  000184  000184  000184  000183  000185  000185  000184  000185  000000  000185  000188  000000  000000  000184  000184  000184  000185  000185  000184  000184  000184  000183  000184  000184  000184  000183  000183  000183  000184  000184  000184  000184  000184  000184  000183  000183  000183  000183  000183  000184  000184  000184  000184  000183  000183  000184  000184  000184  000184  000184  000184  000000  000186  000185  000000  000000  000112  000112  000111  000111  000111  000111  000111  000000  000181  000182  000182  000182  000181  000182  000182  000182  000182  000181  000182  000182  000182
  000185  000184  000184  000185  000185  000185  000184  000184  000185  000185  000185  000184  000185  000184  000185  000185  000185  000185  000185  000186  000185  000185  000185  000185  000185  000000  000000  000185  000185  000186  000186  000185  000185  000185  000184  000184  000185  000185  000185  000185  000185  000184  000184  000184  000184  000183  000183  000184  000184  000186  000185  000185  000185  000185  000185  000185  000185  000186  000186  000186  000186  000186  000186  000186  000186  000000  000000  000190  000000  000188  000187  000186  000186  000186  000186  000186  000186  000185  000185  000186  000186  000186  000000  000186  000186  000186  000186  000185  000185  000185  000185  000185  000185  000184  000185  000185  000185  000186  000186  000186  000186  000186  000186  000186  000185  000185  000186  000187  000187  000186  000000  000000  000112  000112  000111  000111  000111  000111  000111  000000  000182  000183  000183  000183  000183  000183  000183  000183  000183  000183  000183  000183  000183
  000186  000186  000186  000186  000186  000186  000186  000186  000187  000187  000186  000186  000186  000187  000186  000187  000187  000186  000186  000187  000186  000186  000186  000187  000188  000187  000188  000186  000186  000187  000187  000187  000187  000187  000187  000186  000186  000186  000186  000187  000187  000186  000185  000186  000186  000186  000186  000185  000186  000187  000187  000186  000186  000188  000187  000186  000187  000188  000188  000188  000188  000188  000187  000188  000188  000188  000000  000000  000190  000189  000189  000188  000188  000187  000187  000188  000188  000188  000187  000187  000188  000188  000188  000188  000188  000188  000187  000187  000187  000187  000186  000186  000186  000186  000186  000186  000187  000187  000187  000187  000187  000187  000187  000187  000187  000187  000187  000188  000187  000187  000187  000000  000112  000112  000111  000111  000111  000111  000111  000000  000000  000184  000184  000184  000185  000184  000184  000184  000185  000185  000000  000184  000184
  000188  000188  000188  000187  000187  000187  000187  000188  000188  000188  000188  000188  000188  000188  000187  000187  000187  000187  000187  000188  000188  000188  000189  000189  000189  000189  000188  000189  000187  000188  000188  000188  000188  000188  000189  000189  000187  000188  000188  000188  000188  000189  000188  000189  000189  000189  000189  000189  000187  000188  000189  000188  000189  000189  000189  000188  000189  000189  000190  000190  000190  000190  000191  000190  000190  000189  000190  000192  000191  000190  000190  000190  000190  000189  000189  000189  000189  000189  000189  000190  000189  000190  000189  000189  000190  000190  000189  000189  000189  000188  000188  000189  000189  000188  000188  000188  000188  000188  000188  000188  000188  000188  000188  000188  000188  000188  000188  000189  000188  000188  000188  000000  000113  000111  000111  000111  000111  000111  000111  000000  000000  000185  000186  000185  000186  000186  000186  000185  000186  000186  000000  000000  000000
  000190  000190  000189  000189  000189  000188  000189  000189  000190  000189  000189  000189  000189  000189  000188  000188  000189  000189  000188  000189  000189  000189  000190  000191  000190  000190  000190  000000  000000  000000  000189  000188  000188  000190  000190  000190  000190  000190  000189  000189  000190  000191  000191  000191  000191  000191  000191  000192  000189  000190  000191  000191  000191  000191  000190  000190  000191  000191  000191  000192  000192  000192  000192  000192  000191  000192  000192  000193  000193  000192  000191  000191  000192  000191  000191  000191  000191  000191  000191  000191  000191  000191  000191  000190  000191  000191  000191  000191  000190  000190  000190  000190  000191  000190  000189  000189  000190  000190  000189  000189  000190  000190  000189  000189  000189  000189  000189  000190  000189  000189  000189  000000  000112  000111  000111  000111  000111  000111  000111  000112  000000  000186  000187  000187  000187  000187  000187  000187  000187  000187  000187  000000  000000
  000191  000191  000192  000191  000191  000190  000191  000191  000191  000190  000191  000191  000191  000191  000000  000191  000191  000191  000189  000189  000190  000000  000000  000000  000000  000000  000000  000000  000000  000000  000000  000000  000000  000000  000000  000000  000190  000191  000190  000191  000192  000192  000192  000192  000192  000192  000193  000000  000000  000000  000192  000192  000192  000193  000193  000193  000193  000193  000193  000193  000193  000193  000193  000193  000193  000193  000193  000194  000194  000193  000192  000192  000192  000192  000192  000192  000193  000193  000193  000192  000192  000192  000191  000191  000191  000192  000192  000192  000191  000191  000191  000191  000191  000191  000191  000190  000191  000191  000191  000191  000191  000191  000190  000190  000190  000190  000190  000190  000190  000190  000190  000000  000000  000111  000111  000111  000111  000111  000111  000111  000000  000187  000188  000188  000000  000000  000000  000000  000000  000000  000000  000000  000000
  000193  000193  000193  000193  000192  000192  000193  000193  000193  000192  000192  000192  000193  000193  000193  000193  000000  000192  000000  000000  000000  000000  000000  000000  000000  000065  000065  000065  000065  000065  000065  000065  000065  000000  000000  000000  000000  000000  000193  000193  000194  000194  000194  000194  000194  000194  000194  000194  000194  000194  000193  000194  000194  000194  000194  000194  000194  000194  000194  000194  000194  000194  000194  000194  000194  000194  000194  000194  000195  000194  000194  000193  000193  000193  000194  000194  000194  000194  000194  000193  000193  000193  000193  000192  000192  000192  000192  000192  000192  000192  000192  000192  000192  000192  000192  000191  000192  000192  000192  000192  000191  000191  000191  000191  000191  000191  000191  000190  000190  000191  000192  000000  000000  000111  000111  000111  000111  000111  000111  000111  000000  000000  000000  000000  000000  000000  000000  000000  000000  000000  000000  000000  000000
  000194  000194  000195  000195  000194  000193  000194  000194  000195  000194  000194  000193  000194  000194  000194  000000  000000  000000  000000  000000  000065  000065  000065  000065  000065  000065  000064  000064  000064  000064  000064  000064  000064  000064  000064  000065  000065  000066  000000  000000  000000  000195  000195  000195  000195  000195  000195  000195  000196  000196  000195  000196  000196  000196  000196  000196  000196  000196  000195  000196  000195  000195  000195  000195  000195  000195  000195  000195  000195  000195  000195  000195  000194  000195  000195  000195  000195  000194  000195  000194  000194  000194  000194  000194  000194  000193  000193  000193  000193  000193  000193  000193  000192  000192  000192  000192  000192  000192  000192  000192  000192  000192  000191  000191  000191  000191  000191  000191  000191  000191  000192  000000  000000  000111  000111  000111  000111  000111  000110  000111  000000  000000  000000  000000  000000  000000  000232  000000  000000  000000  000000  000000  000000
  000196  000196  000197  000000  000196  000196  000195  000196  000196  000196  000196  000196  000196  000000  000000  000000  000000  000000  000000  000065  000065  000065  000065  000065  000064  000064  000064  000064  000064  000064  000064  000064  000064  000064  000064  000064  000064  000065  000065  000066  000000  000000  000196  000197  000197  000197  000197  000197  000197  000197  000197  000197  000197  000197  000197  000197  000197  000196  000196  000197  000196  000196  000196  000196  000196  000195  000195  000196  000196  000196  000196  000195  000195  000195  000196  000195  000195  000195  000195  000195  000195  000194  000194  000194  000194  000194  000194  000194  000193  000193  000193  000193  000193  000192  000192  000192  000192  000192  000192  000192  000192  000192  000192  000192  000191  000191  000191  000191  000191  000191  000192  000000  000000  000111  000111  000111  000111  000110  000110  000110  000000  000000  000000  000000  000000  000000  000000  000000  000000  000000  000000  000000  000000
  000198  000198  000199  000199  000199  000197  000198  000198  000198  000198  000198  000000  000000  000000  000000  000000  000000  000064  000065  000065  000065  000065  000065  000064  000064  000064  000064  000064  000064  000064  000064  000064  000064  000064  000064  000064  000064  000064  000064  000065  000066  000000  000000  000198  000198  000198  000198  000198  000198  000199  000198  000198  000198  000198  000198  000198  000197  000197  000197  000197  000197  000197  000197  000197  000196  000196  000196  000196  000196  000196  000196  000196  000196  000196  000196  000195  000195  000195  000195  000195  000195  000194  000194  000194  000194  000194  000194  000194  000193  000193  000193  000193  000193  000193  000193  000192  000192  000192  000192  000192  000192  000192  000192  000192  000191  000191  000191  000191  000191  000191  000192  000000  000000  000111  000111  000110  000110  000110  000110  000110  000111  000000  000000  000000  000000  000000  000000  000000  000000  000000  000000  000000  000000
  000201  000201  000201  000201  000201  000200  000200  000200  000200  000200  000000  000000  000000  000000  000000  000000  000000  000065  000065  000065  000065  000064  000064  000064  000064  000064  000063  000064  000064  000064  000064  000064  000064  000063  000064  000064  000064  000064  000064  000064  000065  000066  000000  000198  000199  000199  000199  000199  000199  000199  000199  000198  000198  000198  000198  000198  000198  000198  000197  000197  000197  000197  000197  000197  000197  000197  000197  000197  000196  000196  000196  000196  000196  000196  000196  000196  000195  000195  000195  000195  000194  000194  000194  000194  000194  000194  000194  000194  000194  000194  000193  000193  000193  000193  000193  000193  000192  000192  000192  000192  000192  000192  000192  000192  000191  000191  000191  000191  000191  000191  000192  000000  000000  000111  000111  000110  000110  000110  000110  000110  000000  000000  000000  000000  000000  000000  000000  000000  000000  000000  000000  000000  000000
  000202  000202  000202  000203  000203  000000  000202  000000  000202  000000  000000  000000  000000  000000  000000  000000  000065  000065  000065  000065  000064  000064  000064  000064  000064  000063  000063  000063  000063  000063  000064  000064  000063  000063  000063  000063  000063  000063  000064  000064  000064  000065  000066  000000  000199  000199  000199  000199  000199  000199  000199  000199  000199  000198  000198  000198  000198  000198  000198  000198  000198  000197  000197  000197  000197  000197  000197  000197  000196  000196  000196  000196  000196  000196  000196  000196  000195  000195  000195  000195  000195  000195  000194  000194  000194  000194  000194  000194  000194  000194  000193  000193  000193  000193  000193  000193  000192  000192  000192  000192  000192  000192  000191  000191  000191  000191  000191  000191  000191  000191  000192  000192  000000  000110  000110  000110  000110  000110  000110  000110  000000  000000  000000  000000  000000  000000  000000  000000  000000  000000  000000  000000  000000
  000204  000205  000204  000204  000204  000205  000205  000000  000000  000000  000000  000000  000000  000000  000064  000065  000065  000065  000065  000065  000064  000064  000064  000063  000063  000063  000063  000063  000063  000063  000063  000063  000063  000063  000063  000063  000063  000063  000064  000064  000064  000064  000064  000000  000000  000199  000199  000199  000199  000199  000199  000199  000199  000198  000198  000198  000198  000198  000198  000198  000198  000198  000197  000197  000197  000197  000197  000196  000196  000196  000196  000196  000196  000196  000196  000196  000195  000195  000195  000195  000195  000195  000195  000194  000194  000194  000194  000194  000193  000193  000193  000193  000193  000193  000193  000193  000192  000192  000192  000192  000192  000191  000191  000191  000191  000191  000191  000191  000191  000191  000192  000192  000000  000111  000110  000110  000110  000110  000110  000110  000110  000000  000000  000000  000000  000000  000000  000000  000000  000000  000000  000000  000000
  000205  000206  000206  000205  000205  000205  000205  000206  000000  000000  000000  000000  000000  000000  000066  000065  000065  000065  000065  000064  000064  000064  000063  000063  000063  000064  000063  000064  000063  000063  000063  000063  000063  000063  000063  000063  000063  000063  000064  000064  000064  000064  000064  000066  000000  000199  000199  000199  000199  000199  000199  000199  000199  000199  000198  000198  000198  000198  000198  000198  000198  000198  000197  000197  000197  000197  000196  000196  000196  000196  000196  000196  000196  000196  000196  000196  000195  000195  000195  000195  000195  000195  000194  000194  000194  000194  000193  000193  000193  000193  000193  000193  000193  000193  000192  000192  000192  000192  000192  000192  000191  000191  000191  000191  000191  000191  000191  000191  000191  000191  000192  000193  000000  000000  000110  000110  000110  000110  000110  000110  000110  000000  000000  000000  000000  000000  000000  000000  000000  000000  000000  000000  000000
  000206  000206  000205  000205  000205  000205  000205  000000  000000  000000  000000  000000  000000  000065  000065  000065  000065  000065  000064  000064  000064  000064  000063  000063  000063  000064  000064  000064  000063  000063  000063  000063  000063  000063  000063  000064  000063  000064  000064  000064  000063  000063  000063  000064  000000  000000  000199  000199  000199  000199  000199  000199  000199  000198  000198  000198  000198  000198  000198  000198  000198  000197  000197  000197  000197  000197  000196  000196  000196  000196  000196  000196  000196  000196  000195  000195  000195  000195  000195  000195  000195  000194  000194  000194  000194  000194  000194  000193  000193  000193  000193  000193  000193  000193  000192  000192  000192  000192  000192  000192  000191  000191  000191  000191  000191  000191  000190  000190  000190  000191  000191  000192  000000  000000  000110  000110  000110  000110  000110  000110  000110  000000  000233  000233  000000  000000  000000  000000  000000  000000  000000  000000  000000
  000206  000205  000205  000205  000205  000205  000205  000000  000000  000000  000000  000000  000000  000065  000065  000065  000065  000064  000064  000064  000064  000064  000063  000063  000063  000064  000063  000063  000063  000063  000063  000063  000063  000063  000063  000063  000063  000064  000063  000063  000063  000063  000063  000064  000064  000000  000199  000199  000199  000199  000199  000199  000199  000198  000198  000198  000198  000198  000198  000198  000197  000197  000197  000197  000197  000197  000196  000196  000196  000196  000196  000196  000196  000195  000195  000195  000195  000195  000195  000195  000195  000194  000194  000194  000194  000194  000193  000193  000193  000193  000193  000193  000193  000192  000192  000192  000192  000192  000192  000192  000191  000191  000191  000191  000191  000190  000190  000190  000190  000191  000191  000192  000000  000000  000110  000110  000110  000110  000110  000109  000109  000000  000000  000000  000000  000000  000000  000000  000000  000000  000000  000000  000000
  000205  000205  000205  000206  000205  000206  000206  000000  000000  000000  000000  000000  000065  000065  000065  000065  000065  000064  000064  000064  000064  000064  000063  000063  000063  000063  000063  000063  000063  000063  000063  000063  000063  000063  000063  000063  000063  000063  000063  000063  000063  000063  000064  000064  000064  000000  000000  000199  000199  000199  000199  000198  000198  000198  000198  000198  000198  000198  000198  000197  000197  000197  000197  000197  000197  000197  000196  000196  000196  000196  000196  000196  000196  000195  000195  000195  000195  000195  000195  000195  000195  000194  000194  000194  000194  000194  000193  000193  000193  000193  000193  000193  000193  000192  000192  000192  000192  000192  000191  000191  000191  000191  000191  000191  000191  000191  000190  000190  000190  000191  000191  000192  000000  000000  000110  000110  000109  000110  000109  000109  000109  000000  000000  000000  000000  000000  000000  000000  000000  000000  000000  000000  000000
  000206  000205  000205  000205  000206  000206  000000  000000  000000  000000  000000  000000  000066  000066  000065  000065  000064  000064  000064  000064  000064  000064  000063  000063  000063  000063  000063  000063  000063  000063  000063  000063  000063  000063  000063  000063  000063  000063  000063  000063  000063  000063  000063  000064  000064  000065  000000  000199  000199  000199  000199  000199  000198  000198  000198  000198  000198  000198  000197  000197  000197  000197  000197  000197  000197  000197  000196  000196  000196  000196  000196  000196  000196  000195  000195  000195  000195  000195  000195  000194  000194  000194  000194  000194  000194  000194  000193  000193  000193  000193  000193  000193  000192  000192  000192  000192  000192  000192  000191  000191  000191  000191  000191  000191  000191  000191  000190  000190  000190  000190  000191  000192  000000  000000  000110  000109  000109  000109  000109  000109  000109  000110  000000  000000  000000  000000  000000  000000  000000  000000  000000  000000  000000
  000205  000205  000205  000205  000206  000206  000000  000000  000000  000000  000000  000000  000066  000065  000065  000065  000064  000064  000064  000064  000064  000064  000064  000064  000063  000063  000063  000063  000063  000063  000063  000063  000063  000063  000063  000063  000063  000063  000063  000063  000063  000063  000063  000064  000064  000065  000000  000198  000199  000199  000199  000199  000198  000198  000198  000198  000198  000198  000197  000197  000197  000197  000197  000197  000196  000196  000196  000196  000196  000196  000196  000196  000196  000195  000195  000195  000195  000195  000195  000194  000194  000194  000194  000194  000194  000194  000193  000193  000193  000193  000193  000193  000192  000192  000192  000192  000192  000192  000191  000191  000191  000191  000191  000191  000191  000191  000190  000190  000190  000190  000191  000192  000000  000000  000110  000109  000109  000109  000109  000109  000109  000110  000000  000000  000000  000000  000000  000000  000000  000000  000000  000000  000000
  000205  000205  000205  000205  000206  000207  000000  000000  000000  000000  000000  000066  000065  000065  000065  000064  000064  000064  000064  000064  000064  000064  000064  000064  000063  000063  000063  000063  000063  000063  000063  000063  000063  000063  000063  000063  000063  000063  000063  000063  000063  000063  000063  000064  000064  000064  000000  000000  000198  000199  000199  000199  000198  000198  000198  000198  000198  000198  000197  000197  000197  000197  000197  000196  000196  000196  000196  000196  000196  000196  000196  000196  000195  000195  000195  000195  000195  000195  000194  000194  000194  000194  000194  000194  000193  000193  000193  000193  000193  000193  000192  000192  000192  000192  000192  000192  000192  000192  000191  000191  000191  000191  000191  000191  000190  000190  000190  000190  000190  000190  000191  000192  000000  000000  000110  000110  000109  000109  000109  000109  000109  000109  000000  000000  000000  000000  000000  000000  000000  000000  000000  000000  000000
  000205  000205  000205  000206  000000  000000  000000  000000  000000  000000  000066  000065  000065  000065  000065  000064  000064  000064  000064  000064  000064  000064  000064  000063  000063  000063  000063  000063  000063  000063  000063  000063  000063  000063  000062  000062  000063  000063  000063  000063  000063  000063  000063  000063  000064  000064  000065  000000  000198  000199  000199  000198  000198  000198  000198  000198  000197  000197  000197  000197  000197  000197  000197  000196  000196  000196  000196  000196  000196  000196  000195  000195  000195  000195  000195  000195  000195  000194  000194  000194  000194  000194  000194  000194  000193  000193  000193  000193  000193  000193  000192  000192  000192  000192  000192  000192  000191  000191  000191  000191  000191  000191  000191  000190  000190  000190  000190  000190  000190  000190  000191  000192  000193  000000  000110  000110  000109  000109  000109  000109  000109  000109  000000  000000  000000  000000  000000  000000  000000  000000  000000  000000  000000
  000205  000205  000205  000000  000000  000000  000000  000000  000000  000066  000066  000065  000065  000065  000065  000064  000064  000064  000064  000064  000064  000064  000063  000063  000063  000063  000063  000063  000063  000063  000063  000063  000063  000063  000062  000062  000062  000063  000063  000063  000062  000062  000063  000063  000063  000064  000000  000000  000198  000198  000198  000198  000198  000198  000198  000198  000197  000197  000197  000197  000197  000197  000196  000196  000196  000196  000196  000196  000196  000195  000195  000195  000195  000195  000195  000195  000195  000194  000194  000194  000194  000194  000194  000194  000193  000193  000193  000193  000193  000192  000192  000192  000192  000192  000192  000192  000191  000191  000191  000191  000191  000191  000191  000190  000190  000190  000190  000190  000190  000190  000191  000192  000192  000000  000000  000110  000109  000109  000109  000109  000109  000000  000000  000000  000000  000000  000000  000000  000000  000000  000000  000000  000000
  000205  000205  000206  000000  000000  000000  000000  000000  000000  000066  000066  000065  000065  000065  000065  000064  000064  000063  000063  000064  000064  000064  000064  000063  000063  000063  000063  000063  000063  000063  000063  000062  000062  000062  000062  000062  000062  000062  000063  000063  000062  000062  000063  000063  000063  000063  000064  000000  000000  000198  000198  000198  000198  000198  000198  000198  000197  000197  000197  000197  000197  000197  000196  000196  000196  000196  000196  000196  000196  000195  000195  000195  000195  000195  000195  000195  000194  000194  000194  000194  000194  000194  000194  000193  000193  000193  000193  000193  000193  000192  000192  000192  000192  000192  000192  000192  000191  000191  000191  000191  000191  000191  000191  000190  000190  000190  000190  000190  000190  000190  000191  000192  000193  000000  000000  000110  000109  000109  000109  000108  000108  000109  000000  000000  000000  000000  000000  000000  000000  000000  000000  000000  000000
  000205  000205  000206  000000  000000  000000  000000  000000  000000  000000  000066  000065  000065  000065  000065  000064  000064  000063  000063  000064  000064  000064  000063  000063  000063  000063  000063  000063  000063  000063  000062  000062  000062  000063  000063  000062  000062  000062  000062  000063  000063  000062  000063  000063  000063  000063  000064  000000  000198  000198  000198  000198  000198  000198  000198  000198  000197  000197  000197  000197  000197  000196  000196  000196  000196  000196  000196  000196  000196  000195  000195  000195  000195  000195  000195  000194  000194  000194  000194  000193  000193  000194  000194  000193  000193  000193  000193  000193  000193  000192  000192  000192  000192  000192  000191  000191  000191  000192  000191  000191  000191  000191  000190  000190  000190  000190  000190  000190  000190  000190  000191  000192  000193  000000  000111  000109  000109  000109  000109  000108  000108  000108  000109  000000  000000  000000  000000  000000  000000  000000  000000  000000  000000
  000205  000205  000205  000000  000000  000000  000000  000000  000000  000000  000066  000065  000065  000065  000065  000064  000064  000063  000063  000064  000064  000064  000063  000063  000063  000063  000063  000063  000063  000063  000063  000063  000063  000063  000063  000063  000062  000062  000062  000063  000063  000063  000063  000063  000063  000064  000064  000000  000198  000198  000198  000198  000198  000198  000198  000197  000197  000197  000197  000196  000196  000196  000196  000196  000196  000196  000196  000196  000195  000195  000195  000195  000195  000195  000195  000194  000194  000194  000194  000193  000193  000194  000194  000193  000193  000193  000193  000193  000192  000192  000192  000192  000192  000192  000191  000191  000191  000191  000191  000191  000191  000191  000190  000190  000190  000190  000190  000189  000189  000190  000190  000191  000192  000000  000000  000109  000109  000109  000109  000108  000108  000108  000110  000000  000000  000000  000000  000000  000000  000000  000000  000000  000000
  000204  000205  000205  000000  000000  000000  000000  000000  000000  000065  000065  000065  000065  000065  000064  000064  000064  000063  000063  000064  000064  000064  000063  000063  000063  000063  000063  000063  000063  000063  000063  000063  000063  000063  000063  000062  000062  000062  000062  000063  000063  000063  000063  000063  000063  000063  000000  000000  000197  000198  000198  000198  000197  000197  000197  000197  000197  000197  000197  000196  000196  000196  000196  000196  000196  000196  000196  000196  000195  000195  000195  000195  000195  000195  000195  000194  000194  000194  000194  000193  000193  000193  000193  000193  000193  000193  000193  000193  000192  000192  000192  000192  000191  000191  000191  000191  000191  000191  000191  000191  000191  000191  000190  000190  000190  000190  000190  000189  000189  000189  000190  000191  000192  000000  000000  000109  000109  000109  000109  000109  000108  000109  000000  000000  000000  000000  000000  000000  000000  000000  000000  000000  000000
  000205  000205  000000  000000  000000  000000  000000  000000  000065  000065  000065  000065  000065  000064  000064  000064  000064  000063  000063  000064  000064  000064  000063  000063  000063  000063  000063  000063  000063  000063  000063  000063  000063  000063  000062  000062  000062  000062  000063  000063  000063  000063  000063  000063  000063  000064  000000  000000  000197  000198  000198  000198  000197  000197  000197  000197  000197  000197  000196  000196  000196  000196  000196  000196  000196  000196  000196  000196  000195  000195  000195  000195  000195  000195  000194  000194  000194  000194  000194  000193  000193  000193  000193  000193  000193  000193  000192  000192  000192  000192  000192  000192  000191  000191  000191  000191  000191  000190  000190  000190  000190  000190  000190  000190  000190  000189  000189  000189  000189  000189  000190  000191  000192  000000  000000  000109  000109  000109  000109  000109  000108  000108  000109  000000  000000  000000  000000  000000  000000  000000  000000  000000  000000
  000205  000205  000000  000000  000000  000000  000000  000000  000065  000065  000065  000065  000065  000064  000064  000064  000064  000064  000063  000064  000064  000063  000063  000063  000063  000063  000063  000063  000063  000063  000063  000063  000063  000062  000062  000062  000062  000062  000063  000063  000063  000063  000063  000063  000063  000064  000000  000000  000198  000198  000198  000197  000197  000197  000197  000197  000197  000197  000197  000196  000196  000196  000196  000196  000196  000196  000196  000195  000195  000195  000195  000195  000195  000195  000194  000194  000194  000194  000194  000193  000193  000193  000193  000193  000193  000193  000192  000192  000192  000192  000192  000192  000191  000191  000191  000191  000191  000190  000190  000190  000190  000190  000190  000190  000190  000189  000189  000189  000189  000189  000190  000191  000192  000000  000000  000109  000109  000109  000109  000108  000108  000108  000108  000000  000000  000000  000000  000000  000000  000000  000000  000000  000000
  000205  000206  000000  000000  000000  000000  000000  000000  000065  000065  000065  000065  000064  000064  000064  000064  000063  000064  000064  000064  000064  000063  000063  000063  000063  000063  000063  000063  000063  000063  000063  000063  000063  000062  000062  000062  000062  000062  000063  000063  000063  000063  000063  000063  000064  000065  000000  000197  000198  000198  000197  000197  000197  000197  000197  000197  000197  000197  000197  000197  000196  000196  000196  000196  000196  000196  000195  000195  000195  000195  000195  000194  000194  000194  000194  000194  000194  000194  000194  000194  000193  000193  000193  000193  000193  000192  000192  000192  000192  000192  000192  000192  000191  000191  000191  000191  000190  000190  000190  000190  000190  000190  000190  000190  000190  000189  000190  000189  000189  000189  000189  000191  000192  000192  000000  000109  000109  000109  000108  000108  000108  000108  000108  000000  000000  000000  000000  000000  000000  000000  000000  000000  000000
  000205  000206  000000  000000  000000  000000  000000  000000  000065  000065  000065  000064  000064  000064  000064  000064  000064  000064  000064  000064  000064  000063  000063  000063  000063  000063  000063  000063  000063  000063  000062  000062  000063  000062  000062  000062  000062  000062  000062  000063  000063  000063  000063  000064  000064  000065  000000  000197  000198  000198  000197  000197  000197  000197  000197  000197  000197  000197  000197  000197  000196  000196  000196  000196  000196  000196  000195  000195  000195  000195  000195  000195  000194  000194  000194  000194  000194  000194  000194  000194  000193  000193  000193  000193  000192  000192  000192  000192  000192  000192  000192  000191  000191  000191  000191  000191  000191  000190  000190  000190  000190  000190  000189  000190  000189  000189  000189  000189  000189  000189  000189  000191  000192  000000  000000  000110  000109  000108  000108  000108  000108  000108  000108  000000  000000  000000  000000  000000  000000  000000  000000  000000  000000
  000205  000206  000000  000000  000000  000000  000000  000000  000065  000065  000064  000064  000064  000064  000064  000064  000064  000064  000064  000064  000064  000063  000063  000063  000063  000063  000063  000063  000063  000062  000062  000063  000063  000063  000062  000062  000062  000062  000062  000062  000062  000063  000063  000064  000064  000000  000000  000198  000198  000198  000198  000197  000197  000197  000197  000197  000196  000197  000197  000197  000197  000196  000196  000196  000196  000195  000195  000195  000195  000195  000195  000195  000195  000194  000194  000194  000194  000194  000194  000193  000193  000193  000193  000193  000192  000193  000192  000192  000192  000192  000192  000191  000191  000191  000191  000191  000191  000190  000190  000190  000190  000190  000190  000190  000190  000189  000189  000189  000189  000189  000189  000191  000192  000000  000000  000109  000108  000108  000108  000108  000108  000108  000108  000000  000000  000000  000000  000000  000000  000000  000000  000000  000000
  000205  000206  000000  000000  000000  000000  000000  000000  000065  000065  000064  000064  000064  000064  000064  000064  000064  000064  000064  000064  000064  000063  000063  000063  000063  000063  000063  000063  000063  000063  000063  000063  000063  000063  000062  000062  000062  000062  000062  000062  000062  000063  000063  000063  000064  000000  000197  000197  000198  000198  000198  000197  000197  000197  000197  000197  000196  000196  000197  000197  000197  000196  000196  000196  000196  000195  000195  000195  000195  000195  000195  000195  000195  000194  000194  000194  000194  000194  000194  000194  000193  000193  000193  000193  000192  000192  000192  000192  000192  000192  000192  000191  000191  000191  000191  000191  000190  000190  000190  000190  000190  000190  000190  000189  000189  000189  000189  000189  000189  000189  000189  000190  000191  000191  000000  000109  000109  000108  000108  000108  000108  000108  000108  000000  000000  000000  000000  000000  000000  000000  000000  000000  000000
  000205  000000  000000  000000  000000  000000  000000  000064  000064  000064  000064  000064  000064  000064  000064  000064  000064  000064  000064  000064  000063  000063  000063  000063  000063  000063  000063  000063  000063  000063  000063  000063  000063  000063  000062  000062  000062  000063  000062  000062  000062  000063  000063  000064  000000  000000  000197  000197  000198  000198  000198  000197  000197  000197  000197  000197  000196  000196  000197  000197  000197  000196  000196  000196  000196  000195  000195  000195  000195  000195  000195  000195  000195  000195  000194  000194  000194  000194  000194  000194  000193  000193  000193  000192  000192  000192  000192  000192  000192  000191  000191  000191  000191  000191  000191  000190  000190  000190  000190  000190  000190  000190  000189  000189  000189  000189  000189  000189  000189  000189  000189  000190  000191  000192  000000  000000  000109  000108  000108  000108  000108  000108  000108  000000  000000  000000  000000  000000  000000  000000  000000  000000  000000
  000206  000000  000000  000000  000000  000018  000000  000065  000065  000064  000064  000064  000064  000064  000064  000064  000064  000064  000064  000064  000063  000063  000063  000063  000063  000063  000063  000063  000063  000063  000063  000062  000062  000062  000062  000062  000062  000062  000062  000062  000063  000063  000063  000064  000000  000197  000198  000197  000197  000198  000198  000197  000197  000197  000197  000197  000197  000197  000197  000197  000196  000196  000196  000196  000196  000196  000195  000195  000195  000195  000195  000195  000195  000195  000194  000194  000194  000000  000194  000194  000193  000193  000192  000192  000192  000192  000192  000192  000191  000191  000191  000191  000191  000191  000190  000190  000190  000190  000190  000190  000190  000189  000189  000189  000189  000189  000189  000189  000189  000189  000189  000190  000191  000192  000000  000000  000108  000108  000108  000108  000108  000108  000108  000000  000000  000000  000000  000000  000000  000000  000000  000000  000000
  000205  000000  000000  000000  000016  000000  000000  000065  000065  000064  000064  000064  000064  000064  000064  000064  000064  000064  000064  000063  000063  000063  000063  000063  000063  000063  000063  000063  000063  000062  000062  000062  000062  000062  000062  000062  000062  000062  000062  000062  000062  000062  000063  000000  000000  000198  000198  000198  000198  000198  000198  000197  000198  000198  000198  000197  000000  000000  000000  000000  000000  000000  000000  000000  000000  000000  000000  000000  000000  000000  000000  000000  000000  000000  000000  000000  000000  000000  000000  000000  000000  000000  000193  000192  000192  000192  000192  000192  000191  000191  000191  000191  000191  000190  000190  000190  000190  000190  000190  000190  000189  000189  000189  000189  000189  000189  000189  000188  000188  000188  000189  000190  000191  000191  000000  000000  000108  000108  000108  000108  000108  000107  000107  000000  000000  000000  000000  000000  000000  000000  000000  000000  000000
  000000  000000  000000  000000  000000  000000  000000  000065  000065  000065  000064  000064  000064  000064  000064  000064  000064  000064  000064  000063  000063  000063  000063  000063  000063  000063  000063  000063  000062  000062  000062  000061  000061  000061  000061  000061  000061  000061  000061  000062  000062  000062  000000  000000  000000  000000  000000  000000  000000  000000  000000  000000  000000  000000  000000  000000  000000  000000  000000  000000  000000  000000  000000  000000  000000  000000  000000  000000  000000  000000  000000  000000  000000  000000  000000  000019  000019  000018  000018  000018  000018  000018  000018  000000  000193  000192  000192  000191  000191  000191  000191  000191  000190  000190  000190  000190  000190  000190  000190  000189  000189  000189  000189  000189  000189  000189  000188  000188  000188  000188  000189  000190  000191  000191  000000  000000  000108  000108  000108  000108  000107  000107  000107  000108  000000  000000  000000  000000  000000  000000  000000  000000  000000
  000000  000000  000000  000000  000000  000017  000000  000064  000065  000064  000064  000064  000064  000064  000064  000064  000064  000063  000063  000063  000063  000063  000063  000063  000063  000063  000062  000062  000062  000061  000061  000061  000061  000061  000061  000061  000061  000061  000000  000000  000000  000000  000000  000019  000019  000018  000000  000000  000000  000000  000000  000000  000000  000000  000000  000018  000018  000018  000018  000018  000018  000000  000000  000018  000018  000018  000018  000018  000018  000018  000018  000018  000018  000018  000018  000018  000018  000018  000018  000018  000018  000018  000018  000018  000000  000192  000192  000191  000191  000191  000191  000190  000190  000190  000190  000190  000190  000190  000189  000189  000189  000189  000189  000189  000189  000189  000188  000188  000188  000188  000188  000189  000190  000191  000000  000000  000108  000108  000108  000107  000107  000107  000107  000108  000000  000000  000000  000000  000000  000000  000000  000000  000000
  000000  000000  000018  000000  000017  000018  000000  000064  000064  000064  000064  000064  000064  000064  000064  000064  000063  000063  000063  000063  000063  000063  000063  000062  000000  000000  000000  000000  000000  000000  000000  000000  000000  000000  000000  000019  000019  000019  000019  000019  000019  000019  000019  000019  000019  000019  000019  000019  000019  000018  000018  000018  000018  000018  000018  000018  000018  000018  000018  000018  000018  000018  000018  000018  000018  000018  000018  000018  000018  000018  000018  000018  000018  000018  000018  000018  000018  000018  000018  000018  000018  000018  000018  000018  000000  000192  000192  000191  000191  000191  000191  000191  000190  000190  000190  000190  000190  000190  000189  000189  000189  000189  000189  000189  000189  000188  000188  000188  000188  000188  000188  000189  000190  000191  000000  000000  000108  000108  000108  000107  000107  000107  000107  000107  000109  000000  000000  000000  000000  000000  000000  000000  000000
  000000  000018  000019  000019  000019  000019  000000  000000  000000  000000  000000  000000  000000  000000  000000  000000  000000  000000  000000  000000  000000  000000  000000  000019  000019  000019  000019  000019  000019  000019  000019  000019  000019  000019  000019  000019  000019  000019  000019  000019  000019  000019  000019  000019  000019  000019  000019  000019  000019  000018  000018  000018  000018  000018  000018  000018  000018  000018  000018  000018  000018  000018  000018  000018  000018  000018  000018  000018  000018  000018  000018  000018  000018  000018  000018  000018  000018  000018  000018  000018  000018  000018  000018  000018  000018  000192  000191  000191  000191  000191  000191  000190  000190  000190  000190  000190  000190  000190  000189  000189  000189  000189  000189  000189  000189  000188  000188  000188  000188  000188  000188  000189  000190  000190  000000  000000  000108  000108  000108  000107  000107  000107  000107  000107  000000  000000  000000  000000  000000  000000  000000  000000  000000
  000019  000019  000019  000019  000019  000019  000019  000019  000019  000019  000019  000019  000019  000019  000019  000019  000019  000019  000019  000019  000019  000019  000019  000019  000019  000019  000019  000019  000019  000019  000019  000019  000019  000019  000019  000019  000019  000019  000019  000019  000019  000019  000019  000019  000019  000018  000019  000019  000019  000018  000018  000018  000018  000018  000019  000018  000018  000018  000018  000018  000018  000018  000018  000018  000018  000018  000018  000018  000018  000018  000018  000018  000018  000018  000018  000018  000018  000018  000018  000018  000018  000018  000018  000018  000018  000000  000191  000191  000191  000191  000190  000190  000190  000190  000190  000190  000190  000190  000189  000189  000189  000189  000189  000188  000189  000188  000188  000188  000188  000188  000188  000189  000190  000190  000000  000000  000108  000108  000108  000107  000107  000107  000107  000107  000109  000000  000000  000000  000000  000000  000000  000000  000000
  000019  000019  000019  000019  000019  000019  000019  000019  000019  000019  000019  000019  000019  000019  000019  000019  000019  000019  000019  000019  000019  000019  000019  000019  000019  000019  000019  000019  000019  000019  000019  000019  000019  000019  000019  000019  000019  000019  000019  000019  000019  000019  000019  000019  000019  000018  000019  000019  000019  000018  000018  000018  000018  000019  000019  000019  000018  000018  000018  000018  000018  000018  000018  000018  000018  000018  000018  000018  000018  000018  000018  000018  000018  000018  000018  000018  000018  000018  000018  000018  000018  000018  000018  000018  000018  000000  000191  000191  000191  000191  000190  000190  000190  000190  000190  000190  000190  000189  000189  000189  000189  000189  000188  000188  000188  000188  000188  000188  000188  000188  000188  000188  000190  000190  000000  000000  000108  000108  000107  000107  000107  000107  000107  000107  000108  000000  000000  000000  000000  000000  000000  000000  000000
  000019  000019  000019  000019  000019  000019  000019  000019  000019  000019  000019  000019  000019  000019  000019  000019  000019  000019  000019  000019  000019  000019  000019  000019  000019  000019  000019  000019  000019  000019  000019  000019  000019  000019  000019  000019  000019  000019  000019  000019  000019  000019  000019  000019  000019  000019  000019  000019  000019  000019  000018  000018  000018  000019  000019  000019  000018  000018  000018  000018  000018  000018  000018  000018  000018  000018  000018  000018  000018  000018  000018  000018  000018  000018  000018  000018  000018  000018  000018  000018  000018  000018  000018  000018  000018  000000  000191  000191  000191  000191  000190  000190  000190  000190  000190  000190  000190  000189  000189  000189  000189  000189  000188  000188  000188  000188  000188  000188  000188  000188  000188  000188  000189  000190  000000  000000  000000  000107  000107  000107  000107  000107  000107  000107  000108  000000  000000  000000  000000  000000  000000  000000  000000
  000019  000019  000019  000019  000019  000019  000019  000019  000019  000019  000019  000019  000019  000019  000019  000019  000019  000019  000019  000019  000019  000019  000019  000019  000019  000019  000019  000019  000019  000019  000019  000019  000019  000019  000019  000019  000019  000019  000019  000019  000019  000019  000019  000019  000019  000019  000019  000019  000019  000019  000019  000018  000018  000018  000019  000019  000018  000018  000018  000018  000018  000018  000018  000018  000018  000018  000018  000018  000018  000018  000018  000018  000018  000018  000018  000018  000018  000018  000018  000018  000018  000018  000018  000018  000018  000018  000000  000191  000191  000191  000190  000190  000190  000190  000190  000190  000189  000189  000189  000189  000189  000189  000188  000188  000188  000188  000188  000188  000188  000187  000188  000188  000189  000190  000190  000000  000000  000108  000107  000107  000107  000107  000107  000107  000107  000000  000000  000000  000000  000000  000000  000000  000000
  000019  000019  000019  000019  000019  000019  000019  000019  000019  000019  000019  000019  000019  000019  000019  000019  000019  000019  000019  000019  000019  000019  000019  000019  000019  000019  000019  000019  000019  000019  000019  000019  000019  000019  000019  000019  000019  000019  000019  000019  000019  000019  000019  000019  000019  000019  000019  000019  000019  000019  000019  000019  000019  000019  000019  000019  000019  000018  000018  000018  000018  000018  000018  000018  000018  000018  000018  000018  000018  000018  000018  000018  000018  000018  000018  000018  000018  000018  000018  000018  000018  000018  000018  000018  000019  000018  000000  000191  000190  000190  000190  000190  000190  000190  000190  000190  000189  000189  000189  000189  000189  000188  000188  000188  000188  000188  000188  000188  000187  000187  000187  000188  000189  000190  000190  000000  000000  000107  000107  000107  000107  000107  000107  000107  000107  000000  000000  000000  000000  000000  000000  000000  000000
  000019  000019  000019  000019  000019  000019  000019  000019  000019  000019  000019  000019  000019  000019  000019  000019  000019  000019  000019  000019  000019  000019  000019  000019  000019  000019  000019  000019  000019  000019  000019  000019  000019  000019  000019  000019  000019  000019  000019  000019  000019  000019  000019  000019  000018  000018  000018  000018  000018  000018  000018  000018  000018  000018  000019  000019  000019  000019  000018  000018  000018  000018  000018  000018  000018  000018  000018  000018  000018  000018  000018  000018  000018  000018  000018  000018  000018  000018  000018  000018  000018  000018  000018  000018  000019  000019  000020  000190  000190  000190  000190  000190  000190  000189  000189  000189  000189  000189  000189  000189  000189  000188  000188  000188  000188  000188  000188  000187  000187  000187  000187  000188  000189  000190  000190  000000  000000  000108  000107  000107  000107  000107  000106  000106  000107  000000  000000  000000  000000  000000  000000  000000  000000
  000019  000019  000019  000019  000019  000019  000019  000019  000019  000019  000019  000019  000019  000019  000019  000019  000019  000019  000019  000019  000019  000019  000019  000019  000019  000019  000019  000019  000019  000019  000019  000018  000018  000018  000018  000019  000019  000019  000018  000018  000018  000018  000018  000018  000018  000018  000018  000018  000018  000018  000018  000018  000018  000018  000018  000018  000018  000018  000018  000018  000018  000018  000018  000018  000018  000018  000018  000018  000018  000018  000018  000018  000018  000018  000018  000018  000018  000018  000018  000018  000018  000018  000018  000018  000019  000019  000020  000000  000190  000190  000190  000190  000190  000189  000189  000189  000189  000189  000189  000188  000188  000188  000188  000188  000188  000188  000188  000187  000187  000187  000187  000188  000189  000190  000190  000000  000000  000107  000107  000107  000107  000107  000106  000106  000106  000109  000000  000000  000000  000000  000000  000000  000000
  000019  000019  000019  000019  000019  000019  000019  000019  000019  000019  000019  000019  000019  000019  000019  000019  000019  000019  000019  000019  000019  000019  000019  000019  000019  000019  000019  000019  000019  000018  000018  000018  000018  000019  000019  000019  000019  000018  000018  000018  000018  000018  000018  000018  000018  000018  000018  000018  000018  000018  000018  000018  000018  000018  000018  000018  000018  000018  000018  000018  000018  000018  000018  000018  000018  000018  000018  000018  000018  000018  000018  000018  000018  000018  000018  000018  000018  000018  000018  000018  000018  000018  000018  000018  000019  000020  000020  000000  000190  000190  000190  000190  000190  000189  000189  000189  000189  000189  000188  000188  000188  000188  000188  000188  000188  000188  000188  000187  000187  000187  000187  000188  000189  000190  000190  000000  000000  000107  000107  000107  000107  000106  000106  000106  000106  000000  000000  000000  000000  000000  000000  000000  000000
  000019  000019  000019  000019  000019  000019  000019  000019  000019  000019  000019  000019  000019  000019  000019  000019  000019  000019  000019  000019  000019  000019  000019  000019  000019  000019  000019  000019  000019  000018  000018  000018  000018  000018  000018  000019  000019  000019  000018  000018  000018  000018  000018  000018  000018  000018  000018  000018  000018  000018  000018  000018  000018  000018  000018  000018  000018  000018  000018  000018  000018  000018  000018  000018  000018  000018  000018  000018  000018  000018  000018  000018  000018  000018  000018  000018  000018  000018  000018  000018  000018  000018  000018  000018  000019  000020  000020  000000  000000  000189  000189  000189  000189  000189  000189  000189  000189  000188  000188  000188  000188  000188  000188  000188  000188  000188  000187  000187  000187  000187  000187  000188  000188  000189  000190  000000  000000  000107  000107  000107  000106  000106  000106  000106  000106  000107  000000  000000  000000  000000  000000  000000  000000
  000019  000019  000019  000019  000019  000019  000019  000019  000019  000019  000019  000019  000019  000019  000019  000019  000019  000019  000019  000019  000019  000019  000019  000019  000019  000019  000019  000019  000019  000018  000018  000018  000018  000018  000018  000019  000018  000018  000018  000018  000018  000018  000018  000018  000018  000018  000018  000018  000018  000018  000018  000018  000018  000018  000018  000018  000018  000018  000018  000018  000018  000018  000018  000018  000018  000018  000018  000018  000018  000018  000018  000018  000018  000018  000018  000018  000018  000018  000018  000018  000018  000018  000018  000018  000019  000020  000020  000021  000000  000189  000190  000190  000189  000189  000189  000189  000189  000189  000188  000188  000188  000188  000188  000188  000187  000187  000187  000187  000187  000187  000187  000187  000188  000189  000189  000000  000000  000108  000107  000106  000106  000106  000106  000106  000106  000000  000000  000000  000000  000000  000000  000000  000000
  000019  000019  000019  000019  000019  000019  000019  000019  000019  000019  000019  000019  000019  000019  000019  000019  000019  000019  000019  000019  000019  000019  000019  000019  000019  000018  000019  000019  000019  000018  000018  000018  000018  000018  000018  000018  000018  000018  000018  000018  000018  000018  000018  000018  000018  000018  000018  000018  000018  000018  000018  000018  000018  000018  000018  000018  000018  000018  000018  000018  000018  000018  000018  000018  000018  000018  000018  000018  000018  000018  000018  000018  000018  000018  000018  000018  000018  000018  000018  000018  000018  000018  000018  000018  000019  000020  000021  000021  000000  000189  000190  000189  000189  000189  000189  000189  000189  000188  000188  000188  000188  000188  000188  000187  000187  000187  000187  000187  000187  000187  000187  000187  000188  000189  000189  000000  000000  000109  000107  000106  000106  000106  000106  000106  000106  000000  000000  000000  000000  000000  000000  000000  000000
  000019  000019  000019  000019  000019  000019  000019  000019  000019  000019  000019  000019  000019  000019  000019  000019  000019  000019  000019  000019  000019  000019  000019  000019  000019  000019  000019  000019  000019  000019  000018  000018  000018  000018  000018  000018  000018  000018  000018  000018  000018  000018  000018  000018  000018  000018  000018  000018  000018  000018  000018  000018  000018  000018  000018  000018  000018  000018  000018  000018  000018  000018  000018  000018  000018  000018  000018  000018  000018  000018  000018  000018  000018  000018  000018  000018  000018  000018  000018  000018  000018  000018  000018  000018  000019  000020  000021  000022  000000  000000  000189  000189  000189  000189  000189  000189  000189  000188  000188  000188  000188  000188  000187  000187  000187  000187  000187  000187  000187  000186  000186  000187  000188  000189  000189  000000  000000  000000  000107  000106  000106  000106  000106  000106  000106  000106  000000  000000  000000  000000  000000  000000  000000
  000019  000019  000019  000019  000019  000019  000019  000019  000019  000019  000019  000019  000019  000019  000019  000019  000019  000019  000019  000019  000019  000019  000019  000019  000019  000019  000019  000018  000018  000018  000018  000018  000018  000018  000018  000018  000018  000018  000018  000018  000018  000018  000018  000018  000018  000018  000018  000018  000018  000018  000018  000018  000018  000018  000018  000018  000018  000018  000018  000018  000018  000018  000018  000018  000018  000018  000018  000018  000018  000018  000018  000018  000018  000018  000018  000018  000018  000018  000018  000018  000018  000018  000018  000019  000019  000020  000021  000022  000000  000000  000189  000189  000189  000189  000189  000189  000188  000188  000188  000188  000188  000188  000187  000187  000187  000187  000187  000187  000187  000187  000186  000186  000188  000189  000189  000000  000000  000000  000106  000106  000106  000106  000106  000106  000106  000106  000000  000000  000000  000000  000000  000000  000000
  000019  000019  000019  000019  000019  000019  000019  000019  000019  000019  000019  000019  000019  000019  000019  000019  000019  000019  000019  000019  000019  000019  000019  000019  000019  000019  000019  000018  000018  000018  000018  000018  000018  000018  000018  000018  000018  000018  000018  000018  000018  000018  000018  000018  000018  000018  000018  000018  000018  000018  000018  000018  000018  000018  000018  000018  000018  000018  000018  000018  000018  000018  000018  000018  000018  000018  000018  000018  000018  000018  000018  000018  000018  000018  000018  000018  000018  000018  000018  000018  000018  000018  000018  000019  000019  000020  000021  000022  000000  000000  000000  000189  000189  000189  000189  000189  000188  000188  000188  000188  000188  000188  000187  000187  000187  000187  000187  000187  000187  000187  000186  000187  000188  000189  000189  000000  000000  000000  000106  000106  000106  000106  000106  000106  000106  000106  000000  000000  000000  000000  000000  000000  000000
  000019  000019  000019  000019  000019  000019  000019  000019  000019  000019  000019  000019  000019  000019  000018  000019  000019  000019  000019  000019  000019  000019  000019  000019  000019  000019  000019  000018  000018  000018  000019  000019  000018  000018  000018  000019  000018  000018  000018  000018  000018  000018  000018  000018  000018  000018  000018  000018  000018  000018  000018  000018  000018  000018  000018  000018  000018  000018  000018  000018  000018  000018  000018  000018  000018  000018  000018  000018  000018  000018  000018  000018  000018  000018  000018  000018  000018  000018  000018  000018  000018  000018  000018  000019  000019  000020  000021  000022  000023  000000  000000  000189  000189  000189  000189  000188  000188  000188  000188  000188  000188  000187  000187  000187  000187  000187  000187  000187  000187  000187  000186  000187  000188  000189  000189  000000  000000  000000  000107  000106  000106  000106  000106  000106  000106  000106  000000  000000  000000  000000  000000  000000  000000
  000019  000019  000019  000019  000019  000019  000019  000019  000019  000019  000019  000019  000019  000019  000018  000018  000018  000018  000018  000019  000019  000019  000018  000018  000018  000019  000019  000019  000019  000019  000019  000018  000018  000018  000018  000018  000018  000018  000018  000018  000018  000018  000018  000018  000018  000018  000018  000018  000018  000018  000018  000018  000018  000018  000018  000018  000018  000018  000018  000018  000018  000018  000018  000018  000018  000018  000018  000018  000018  000018  000018  000018  000018  000018  000018  000018  000018  000018  000018  000018  000018  000018  000018  000019  000019  000020  000021  000021  000023  000000  000000  000188  000189  000189  000189  000188  000188  000188  000188  000188  000187  000187  000187  000187  000187  000187  000187  000187  000186  000186  000186  000186  000187  000189  000189  000000  000000  000000  000107  000106  000106  000106  000106  000106  000106  000106  000106  000000  000000  000000  000000  000000  000000
  000019  000019  000019  000019  000019  000019  000019  000019  000019  000019  000019  000019  000019  000019  000019  000019  000018  000018  000019  000019  000019  000018  000018  000018  000018  000019  000019  000019  000019  000019  000018  000018  000018  000018  000018  000018  000018  000018  000018  000018  000018  000018  000018  000018  000018  000018  000018  000018  000018  000018  000018  000018  000018  000018  000018  000018  000018  000018  000018  000018  000018  000018  000018  000018  000018  000018  000018  000018  000018  000018  000018  000018  000018  000018  000018  000018  000018  000018  000018  000018  000018  000018  000018  000019  000019  000020  000021  000021  000022  000024  000000  000000  000188  000189  000189  000188  000188  000188  000188  000188  000187  000187  000187  000187  000187  000187  000187  000187  000186  000186  000186  000186  000187  000188  000189  000000  000000  000000  000107  000106  000106  000106  000106  000106  000106  000106  000106  000000  000000  000000  000000  000000  000000
  000019  000019  000019  000019  000019  000019  000019  000019  000019  000019  000019  000019  000019  000019  000019  000019  000018  000019  000019  000019  000019  000018  000018  000018  000018  000018  000019  000019  000019  000018  000018  000018  000018  000018  000018  000018  000018  000018  000018  000018  000018  000018  000018  000018  000018  000018  000018  000018  000018  000018  000018  000018  000018  000018  000018  000018  000018  000018  000018  000018  000018  000018  000018  000018  000018  000018  000018  000018  000018  000018  000018  000018  000018  000018  000018  000018  000018  000018  000018  000018  000018  000018  000018  000019  000020  000020  000020  000020  000021  000022  000022  000000  000000  000000  000000  000189  000188  000188  000188  000188  000187  000187  000187  000187  000187  000187  000186  000186  000186  000186  000186  000186  000187  000188  000188  000000  000000  000000  000107  000106  000106  000106  000106  000106  000106  000106  000106  000000  000000  000000  000000  000000  000000
  000019  000019  000019  000019  000019  000019  000019  000019  000019  000019  000019  000019  000019  000019  000019  000019  000019  000019  000019  000019  000019  000018  000018  000018  000018  000018  000019  000018  000018  000018  000018  000018  000018  000018  000018  000018  000018  000018  000018  000018  000018  000018  000018  000018  000018  000018  000018  000018  000018  000018  000018  000018  000018  000018  000018  000018  000018  000018  000018  000018  000018  000018  000018  000018  000018  000018  000018  000018  000018  000018  000018  000018  000018  000018  000018  000018  000018  000018  000018  000018  000018  000018  000018  000019  000020  000020  000020  000020  000021  000022  000022  000022  000022  000000  000000  000000  000188  000188  000188  000187  000187  000187  000187  000187  000186  000186  000186  000186  000186  000186  000186  000186  000187  000188  000188  000188  000000  000000  000107  000106  000106  000106  000106  000106  000105  000105  000106  000000  000000  000000  000000  000000  000000
  000019  000019  000019  000019  000019  000019  000019  000019  000019  000019  000019  000019  000019  000019  000019  000019  000019  000019  000018  000018  000018  000018  000018  000018  000019  000019  000019  000018  000018  000018  000018  000018  000018  000018  000018  000018  000018  000018  000018  000018  000018  000018  000018  000018  000018  000018  000018  000018  000018  000018  000018  000018  000018  000018  000018  000018  000018  000018  000018  000018  000018  000018  000018  000018  000018  000018  000018  000018  000018  000018  000018  000018  000018  000018  000018  000018  000018  000018  000018  000018  000018  000018  000018  000019  000020  000020  000020  000020  000021  000022  000022  000023  000023  000024  000000  000000  000000  000188  000188  000187  000187  000187  000187  000187  000186  000186  000186  000186  000186  000186  000186  000186  000187  000188  000188  000188  000000  000000  000000  000106  000106  000106  000105  000105  000105  000105  000105  000000  000000  000000  000000  000000  000000
  000019  000019  000019  000019  000019  000019  000019  000019  000019  000019  000019  000019  000019  000019  000019  000019  000019  000019  000019  000018  000019  000019  000018  000018  000018  000019  000018  000018  000018  000018  000018  000018  000019  000019  000018  000018  000018  000018  000018  000018  000018  000018  000018  000018  000018  000018  000018  000018  000018  000018  000018  000018  000018  000018  000018  000018  000018  000018  000018  000018  000018  000018  000018  000018  000018  000018  000018  000018  000018  000018  000018  000018  000018  000018  000018  000018  000018  000018  000018  000018  000018  000018  000018  000019  000020  000020  000021  000021  000022  000024  000024  000024  000024  000024  000024  000024  000000  000000  000188  000187  000187  000187  000187  000186  000186  000186  000186  000186  000186  000186  000185  000186  000187  000188  000188  000188  000000  000000  000000  000106  000106  000105  000105  000105  000105  000105  000105  000000  000000  000000  000000  000000  000000
  000019  000019  000019  000019  000019  000019  000019  000019  000019  000019  000019  000019  000019  000019  000019  000019  000019  000019  000018  000018  000019  000019  000019  000018  000018  000018  000018  000018  000018  000018  000018  000019  000019  000018  000018  000018  000018  000018  000018  000018  000018  000018  000018  000018  000018  000018  000018  000018  000018  000018  000018  000018  000018  000018  000018  000018  000018  000018  000018  000018  000018  000018  000018  000018  000018  000018  000018  000018  000018  000018  000018  000018  000018  000018  000018  000018  000018  000018  000018  000018  000018  000018  000018  000019  000020  000020  000021  000022  000023  000024  000024  000024  000024  000024  000000  000000  000024  000000  000188  000187  000187  000187  000186  000186  000186  000186  000186  000186  000186  000186  000185  000185  000186  000188  000188  000188  000000  000000  000000  000106  000106  000105  000105  000105  000105  000105  000105  000107  000000  000000  000000  000000  000000
